ply
    format ascii 1.0
    element vertex 60332
    property float x
    property float y
    property float z
    property uchar red
    property uchar green
    property uchar blue
    end_header
0.105469 0.566406 0.033382 35 34 40
0.109375 0.566406 0.033304 28 27 33
0.113281 0.566406 0.033181 17 16 22
0.117188 0.566406 0.033030 4 3 9
0.121094 0.566406 0.032878 8 8 8
0.125000 0.566406 0.032785 0 0 0
0.128906 0.566406 0.032432 0 0 0
0.132812 0.566406 0.031935 0 0 0
0.136719 0.566406 0.031280 0 0 0
0.140625 0.566406 0.030561 3 3 3
0.144531 0.566406 0.029600 7 7 7
0.148438 0.566406 0.028380 7 7 7
0.152344 0.566406 0.026567 1 0 0
0.156250 0.566406 0.024247 30 12 16
0.160156 0.566406 0.021193 27 17 18
0.164062 0.566406 0.017079 2 1 1
-0.171875 0.562500 -0.061412 67 88 129
-0.167969 0.562500 -0.052893 102 109 137
-0.164062 0.562500 -0.048588 69 69 82
-0.160156 0.562500 -0.045530 86 85 89
-0.156250 0.562500 -0.042721 143 143 144
-0.152344 0.562500 -0.039157 176 176 176
-0.148438 0.562500 -0.036941 194 194 194
-0.144531 0.562500 -0.034849 209 209 209
-0.140625 0.562500 -0.033279 215 215 215
-0.136719 0.562500 -0.031863 216 216 216
-0.132812 0.562500 -0.030592 216 216 216
-0.128906 0.562500 -0.029578 216 221 225
-0.125000 0.562500 -0.028618 213 218 222
-0.121094 0.562500 -0.027595 210 215 219
-0.117188 0.562500 -0.026352 207 212 216
-0.113281 0.562500 -0.024912 206 211 215
-0.109375 0.562500 -0.023255 207 212 216
-0.105469 0.562500 -0.021310 206 211 215
-0.101562 0.562500 -0.019132 205 210 214
-0.097656 0.562500 -0.016735 205 210 214
-0.093750 0.562500 -0.014136 206 211 215
-0.089844 0.562500 -0.011351 207 212 216
-0.085938 0.562500 -0.008397 208 213 217
-0.082031 0.562500 -0.005466 210 215 219
-0.078125 0.562500 -0.002613 211 216 220
-0.074219 0.562500 0.000142 213 218 222
-0.070312 0.562500 0.002764 214 219 223
-0.066406 0.562500 0.005336 216 219 226
-0.062500 0.562500 0.007862 218 221 228
-0.058594 0.562500 0.010374 220 223 230
-0.054688 0.562500 0.012855 221 224 231
-0.050781 0.562500 0.015296 223 226 233
-0.046875 0.562500 0.017722 225 228 235
-0.042969 0.562500 0.020070 228 231 238
-0.039062 0.562500 0.022309 230 233 240
-0.035156 0.562500 0.024487 226 229 236
-0.031250 0.562500 0.026634 231 234 241
-0.027344 0.562500 0.028660 237 240 247
-0.023438 0.562500 0.030600 239 242 249
-0.019531 0.562500 0.032628 236 239 246
-0.015625 0.562500 0.034582 233 236 243
-0.011719 0.562500 0.036452 231 234 241
-0.007812 0.562500 0.038118 231 234 241
-0.003906 0.562500 0.039677 231 230 235
0.000000 0.562500 0.041251 234 233 238
0.003906 0.562500 0.042871 236 235 240
0.007812 0.562500 0.044570 234 233 238
0.011719 0.562500 0.046043 232 231 236
0.015625 0.562500 0.047426 232 231 236
0.019531 0.562500 0.048623 233 232 237
0.023438 0.562500 0.049412 232 231 236
0.027344 0.562500 0.050011 230 229 234
0.031250 0.562500 0.050417 234 233 238
0.035156 0.562500 0.050574 234 233 238
0.039062 0.562500 0.050454 229 228 233
0.042969 0.562500 0.050407 225 224 229
0.046875 0.562500 0.050049 225 224 229
0.050781 0.562500 0.048800 226 225 230
0.054688 0.562500 0.047528 224 222 228
0.058594 0.562500 0.045937 209 207 214
0.062500 0.562500 0.044435 180 178 185
0.066406 0.562500 0.043201 124 122 129
0.070312 0.562500 0.041898 60 59 65
0.074219 0.562500 0.040744 17 16 22
0.078125 0.562500 0.040009 2 1 7
0.082031 0.562500 0.039075 5 4 10
0.085938 0.562500 0.038022 11 10 16
0.089844 0.562500 0.037478 0 0 5
0.093750 0.562500 0.037022 9 8 14
0.097656 0.562500 0.036658 10 9 15
0.101562 0.562500 0.036439 1 0 6
0.105469 0.562500 0.036261 0 0 5
0.109375 0.562500 0.036079 3 2 8
0.113281 0.562500 0.035891 2 1 7
0.117188 0.562500 0.035688 0 0 5
0.121094 0.562500 0.035493 1 1 1
0.125000 0.562500 0.035380 2 2 2
0.128906 0.562500 0.035063 4 4 4
0.132812 0.562500 0.034609 6 5 6
0.136719 0.562500 0.034075 8 7 8
0.140625 0.562500 0.033475 6 6 6
0.144531 0.562500 0.032614 3 3 3
0.148438 0.562500 0.031533 1 1 1
0.152344 0.562500 0.029921 0 0 0
0.156250 0.562500 0.027913 5 5 5
0.160156 0.562500 0.025069 11 9 9
0.164062 0.562500 0.022815 83 74 60
0.167969 0.562500 0.020235 44 52 27
-0.175781 0.558594 -0.059041 42 40 64
-0.171875 0.558594 -0.052134 168 168 182
-0.167969 0.558594 -0.046621 185 186 195
-0.164062 0.558594 -0.043480 161 162 168
-0.160156 0.558594 -0.041166 157 159 165
-0.156250 0.558594 -0.038915 179 181 186
-0.152344 0.558594 -0.036624 196 199 205
-0.148438 0.558594 -0.034887 208 211 217
-0.144531 0.558594 -0.033103 213 215 224
-0.140625 0.558594 -0.031509 213 216 225
-0.136719 0.558594 -0.030073 215 218 227
-0.132812 0.558594 -0.028925 218 221 230
-0.128906 0.558594 -0.027798 219 219 229
-0.125000 0.558594 -0.026581 217 217 227
-0.121094 0.558594 -0.025207 215 215 225
-0.117188 0.558594 -0.023675 212 212 222
-0.113281 0.558594 -0.022002 211 211 219
-0.109375 0.558594 -0.020180 212 212 220
-0.105469 0.558594 -0.018145 214 214 222
-0.101562 0.558594 -0.015933 215 215 223
-0.097656 0.558594 -0.013545 215 216 221
-0.093750 0.558594 -0.010940 215 216 221
-0.089844 0.558594 -0.008179 215 216 221
-0.085938 0.558594 -0.005290 215 216 220
-0.082031 0.558594 -0.002428 215 216 220
-0.078125 0.558594 0.000358 216 217 221
-0.074219 0.558594 0.003060 217 218 222
-0.070312 0.558594 0.005558 218 219 223
-0.066406 0.558594 0.007994 220 221 226
-0.062500 0.558594 0.010402 221 222 227
-0.058594 0.558594 0.012816 223 224 229
-0.054688 0.558594 0.015212 225 226 231
-0.050781 0.558594 0.017586 227 228 233
-0.046875 0.558594 0.019949 228 229 234
-0.042969 0.558594 0.022266 228 229 234
-0.039062 0.558594 0.024507 229 230 235
-0.035156 0.558594 0.026709 237 238 243
-0.031250 0.558594 0.028904 235 236 241
-0.027344 0.558594 0.030980 234 235 240
-0.023438 0.558594 0.032964 232 233 238
-0.019531 0.558594 0.035037 232 233 238
-0.015625 0.558594 0.036999 234 235 240
-0.011719 0.558594 0.038845 235 236 241
-0.007812 0.558594 0.040530 237 238 243
-0.003906 0.558594 0.042115 236 237 241
0.000000 0.558594 0.043821 235 236 240
0.003906 0.558594 0.045578 235 236 240
0.007812 0.558594 0.047460 234 235 239
0.011719 0.558594 0.049216 233 234 238
0.015625 0.558594 0.050869 231 232 236
0.019531 0.558594 0.052448 230 231 235
0.023438 0.558594 0.053277 230 231 235
0.027344 0.558594 0.053664 228 229 233
0.031250 0.558594 0.054167 237 238 242
0.035156 0.558594 0.054480 229 230 234
0.039062 0.558594 0.054626 235 236 240
0.042969 0.558594 0.054651 230 231 235
0.046875 0.558594 0.053723 209 210 214
0.050781 0.558594 0.051575 215 216 221
0.054688 0.558594 0.049915 226 226 231
0.058594 0.558594 0.048563 155 155 157
0.062500 0.558594 0.047086 71 71 73
0.066406 0.558594 0.045352 8 8 10
0.070312 0.558594 0.043713 4 4 6
0.074219 0.558594 0.042929 10 10 12
0.078125 0.558594 0.042341 4 4 6
0.082031 0.558594 0.041523 0 0 2
0.085938 0.558594 0.040568 0 0 2
0.089844 0.558594 0.040103 1 1 3
0.093750 0.558594 0.039711 9 9 11
0.097656 0.558594 0.039409 13 13 15
0.101562 0.558594 0.039243 3 3 5
0.105469 0.558594 0.039073 2 2 4
0.109375 0.558594 0.038863 1 1 3
0.113281 0.558594 0.038645 0 0 2
0.117188 0.558594 0.038456 5 5 7
0.121094 0.558594 0.038254 0 6 0
0.125000 0.558594 0.038138 0 6 0
0.128906 0.558594 0.037851 0 4 0
0.132812 0.558594 0.037379 1 1 0
0.136719 0.558594 0.036788 5 0 1
0.140625 0.558594 0.036103 7 0 2
0.144531 0.558594 0.035208 7 0 4
0.148438 0.558594 0.034234 1 0 5
0.152344 0.558594 0.032934 0 7 11
0.156250 0.558594 0.031177 0 6 5
0.160156 0.558594 0.028754 0 21 18
0.164062 0.558594 0.026309 4 9 10
0.167969 0.558594 0.023381 20 14 19
0.171875 0.558594 0.020319 1 1 1
-0.179688 0.554688 -0.055270 76 77 88
-0.175781 0.554688 -0.051065 153 154 158
-0.171875 0.554688 -0.046417 168 170 174
-0.167969 0.554688 -0.043398 169 171 175
-0.164062 0.554688 -0.041288 172 174 178
-0.160156 0.554688 -0.038745 182 185 191
-0.156250 0.554688 -0.037140 199 202 208
-0.152344 0.554688 -0.035366 211 213 220
-0.148438 0.554688 -0.033406 218 221 227
-0.144531 0.554688 -0.031897 219 222 230
-0.140625 0.554688 -0.030551 218 221 230
-0.136719 0.554688 -0.029209 217 220 229
-0.132812 0.554688 -0.027871 217 220 229
-0.128906 0.554688 -0.026461 220 220 230
-0.125000 0.554688 -0.025006 219 219 229
-0.121094 0.554688 -0.023342 216 216 226
-0.117188 0.554688 -0.021543 215 215 224
-0.113281 0.554688 -0.019614 213 213 221
-0.109375 0.554688 -0.017584 214 214 222
-0.105469 0.554688 -0.015389 216 216 224
-0.101562 0.554688 -0.013054 217 217 225
-0.097656 0.554688 -0.010578 216 217 222
-0.093750 0.554688 -0.007907 216 217 222
-0.089844 0.554688 -0.005141 215 216 221
-0.085938 0.554688 -0.002303 215 216 220
-0.082031 0.554688 0.000495 216 217 221
-0.078125 0.554688 0.003235 217 218 222
-0.074219 0.554688 0.005844 218 219 223
-0.070312 0.554688 0.008236 218 219 223
-0.066406 0.554688 0.010578 219 220 225
-0.062500 0.554688 0.012896 220 221 226
-0.058594 0.554688 0.015229 222 223 228
-0.054688 0.554688 0.017581 223 224 229
-0.050781 0.554688 0.019917 224 225 230
-0.046875 0.554688 0.022250 225 226 231
-0.042969 0.554688 0.024554 225 226 231
-0.039062 0.554688 0.026824 225 226 231
-0.035156 0.554688 0.029075 230 231 236
-0.031250 0.554688 0.031313 231 232 237
-0.027344 0.554688 0.033446 232 233 238
-0.023438 0.554688 0.035481 234 235 240
-0.019531 0.554688 0.037570 235 236 241
-0.015625 0.554688 0.039547 236 237 242
-0.011719 0.554688 0.041384 236 237 242
-0.007812 0.554688 0.043081 236 237 242
-0.003906 0.554688 0.044654 236 237 241
0.000000 0.554688 0.046418 236 237 241
0.003906 0.554688 0.048253 235 236 240
0.007812 0.554688 0.050287 234 235 239
0.011719 0.554688 0.052330 233 234 238
0.015625 0.554688 0.054112 231 232 236
0.019531 0.554688 0.055944 230 231 235
0.023438 0.554688 0.057175 230 231 235
0.027344 0.554688 0.057802 230 231 235
0.031250 0.554688 0.058618 237 238 242
0.035156 0.554688 0.059372 223 224 228
0.039062 0.554688 0.059873 221 222 226
0.042969 0.554688 0.059966 222 223 227
0.046875 0.554688 0.058982 220 221 225
0.050781 0.554688 0.056743 214 215 219
0.054688 0.554688 0.054660 185 186 190
0.058594 0.554688 0.052364 39 39 41
0.062500 0.554688 0.050331 1 1 3
0.066406 0.554688 0.048503 0 0 2
0.070312 0.554688 0.046605 0 0 2
0.074219 0.554688 0.045527 2 2 4
0.078125 0.554688 0.044792 3 3 5
0.082031 0.554688 0.044072 3 3 5
0.085938 0.554688 0.043255 0 0 2
0.089844 0.554688 0.043049 0 0 2
0.093750 0.554688 0.042720 0 0 2
0.097656 0.554688 0.042216 0 0 2
0.101562 0.554688 0.041990 0 0 2
0.105469 0.554688 0.041753 0 0 2
0.109375 0.554688 0.041466 5 5 7
0.113281 0.554688 0.041190 0 0 2
0.117188 0.554688 0.040989 1 1 3
0.121094 0.554688 0.040751 0 6 0
0.125000 0.554688 0.040573 0 6 0
0.128906 0.554688 0.040224 0 3 0
0.132812 0.554688 0.039662 1 0 0
0.136719 0.554688 0.038981 4 0 0
0.140625 0.554688 0.038287 7 0 1
0.144531 0.554688 0.037440 6 0 3
0.148438 0.554688 0.036520 1 0 3
0.152344 0.554688 0.035450 0 6 9
0.156250 0.554688 0.034177 0 6 7
0.160156 0.554688 0.032268 0 15 14
0.164062 0.554688 0.030266 1 5 6
0.167969 0.554688 0.027629 62 40 51
0.171875 0.554688 0.025148 33 19 27
0.175781 0.554688 0.021611 23 28 17
-0.187500 0.550781 -0.058110 2 2 3
-0.183594 0.550781 -0.050870 55 56 59
-0.179688 0.550781 -0.047473 179 182 185
-0.175781 0.550781 -0.044756 198 201 204
-0.171875 0.550781 -0.042350 193 196 200
-0.167969 0.550781 -0.040522 193 195 200
-0.164062 0.550781 -0.038866 200 203 207
-0.160156 0.550781 -0.037066 204 207 213
-0.156250 0.550781 -0.035489 212 215 221
-0.152344 0.550781 -0.033901 216 219 225
-0.148438 0.550781 -0.032499 220 223 230
-0.144531 0.550781 -0.031109 222 225 233
-0.140625 0.550781 -0.029701 221 224 233
-0.136719 0.550781 -0.028228 218 221 229
-0.132812 0.550781 -0.026677 216 219 228
-0.128906 0.550781 -0.025025 220 220 229
-0.125000 0.550781 -0.023327 219 219 229
-0.121094 0.550781 -0.021445 218 218 228
-0.117188 0.550781 -0.019375 217 217 227
-0.113281 0.550781 -0.017195 216 216 224
-0.109375 0.550781 -0.014964 217 217 225
-0.105469 0.550781 -0.012609 218 218 226
-0.101562 0.550781 -0.010168 219 219 227
-0.097656 0.550781 -0.007619 217 218 223
-0.093750 0.550781 -0.004912 216 217 222
-0.089844 0.550781 -0.002172 216 217 222
-0.085938 0.550781 0.000595 216 217 221
-0.082031 0.550781 0.003340 216 217 221
-0.078125 0.550781 0.006016 217 218 222
-0.074219 0.550781 0.008533 218 219 223
-0.070312 0.550781 0.010850 218 219 223
-0.066406 0.550781 0.013122 218 219 224
-0.062500 0.550781 0.015371 219 220 225
-0.058594 0.550781 0.017641 220 221 226
-0.054688 0.550781 0.019961 221 222 227
-0.050781 0.550781 0.022261 222 223 228
-0.046875 0.550781 0.024572 222 223 228
-0.042969 0.550781 0.026877 221 222 227
-0.039062 0.550781 0.029178 221 222 227
-0.035156 0.550781 0.031476 223 224 229
-0.031250 0.550781 0.033751 225 226 231
-0.027344 0.550781 0.035959 229 230 235
-0.023438 0.550781 0.038043 232 233 238
-0.019531 0.550781 0.040140 235 236 241
-0.015625 0.550781 0.042106 235 236 241
-0.011719 0.550781 0.043928 235 236 241
-0.007812 0.550781 0.045611 234 235 240
-0.003906 0.550781 0.047126 234 235 239
0.000000 0.550781 0.048930 234 235 239
0.003906 0.550781 0.050772 233 234 238
0.007812 0.550781 0.052859 232 233 237
0.011719 0.550781 0.055069 231 232 236
0.015625 0.550781 0.057019 230 231 235
0.019531 0.550781 0.059307 229 230 234
0.023438 0.550781 0.060904 229 230 234
0.027344 0.550781 0.061787 225 226 230
0.031250 0.550781 0.062671 231 232 236
0.035156 0.550781 0.063214 219 220 224
0.039062 0.550781 0.063195 212 213 217
0.042969 0.550781 0.062597 215 216 220
0.046875 0.550781 0.061278 228 229 233
0.050781 0.550781 0.059192 205 206 210
0.054688 0.550781 0.057083 128 129 133
0.058594 0.550781 0.054552 16 16 18
0.062500 0.550781 0.052568 7 7 9
0.066406 0.550781 0.050994 9 9 11
0.070312 0.550781 0.049487 11 11 13
0.074219 0.550781 0.048266 2 2 4
0.078125 0.550781 0.047230 0 0 2
0.082031 0.550781 0.046558 3 3 5
0.085938 0.550781 0.045793 1 1 3
0.089844 0.550781 0.045824 13 13 15
0.093750 0.550781 0.045556 11 11 13
0.097656 0.550781 0.045013 0 0 2
0.101562 0.550781 0.044767 0 0 2
0.105469 0.550781 0.044453 0 0 2
0.109375 0.550781 0.044099 4 4 6
0.113281 0.550781 0.043729 9 9 11
0.117188 0.550781 0.043481 6 6 8
0.121094 0.550781 0.043216 0 6 0
0.125000 0.550781 0.042997 0 4 0
0.128906 0.550781 0.042633 0 2 0
0.132812 0.550781 0.042062 2 0 0
0.136719 0.550781 0.041372 4 0 0
0.140625 0.550781 0.040674 5 0 1
0.144531 0.550781 0.039851 3 0 1
0.148438 0.550781 0.039002 0 0 3
0.152344 0.550781 0.038017 0 0 3
0.156250 0.550781 0.036877 0 7 6
0.160156 0.550781 0.035365 0 2 2
0.164062 0.550781 0.033780 32 27 28
0.167969 0.550781 0.031536 162 137 144
0.171875 0.550781 0.029011 80 54 65
0.175781 0.550781 0.025843 34 18 26
0.179688 0.550781 0.022039 6 5 6
-0.191406 0.546875 -0.057783 129 137 148
-0.187500 0.546875 -0.052572 162 164 168
-0.183594 0.546875 -0.048302 184 186 189
-0.179688 0.546875 -0.046263 205 209 211
-0.175781 0.546875 -0.043268 209 213 215
-0.171875 0.546875 -0.041256 212 214 219
-0.167969 0.546875 -0.039592 216 219 224
-0.164062 0.546875 -0.037907 222 225 229
-0.160156 0.546875 -0.036264 219 221 228
-0.156250 0.546875 -0.034607 219 221 228
-0.152344 0.546875 -0.033113 217 220 227
-0.148438 0.546875 -0.031666 220 223 230
-0.144531 0.546875 -0.030145 224 227 235
-0.140625 0.546875 -0.028619 223 226 234
-0.136719 0.546875 -0.026978 218 221 229
-0.132812 0.546875 -0.025277 213 216 224
-0.128906 0.546875 -0.023490 215 215 225
-0.125000 0.546875 -0.021624 217 217 226
-0.121094 0.546875 -0.019563 217 217 227
-0.117188 0.546875 -0.017254 218 218 227
-0.113281 0.546875 -0.014831 218 218 226
-0.109375 0.546875 -0.012375 218 218 226
-0.105469 0.546875 -0.009821 219 219 227
-0.101562 0.546875 -0.007221 219 219 227
-0.097656 0.546875 -0.004541 218 219 224
-0.093750 0.546875 -0.001758 218 219 224
-0.089844 0.546875 0.001004 217 218 223
-0.085938 0.546875 0.003739 217 218 222
-0.082031 0.546875 0.006446 217 218 222
-0.078125 0.546875 0.009043 217 218 222
-0.074219 0.546875 0.011484 218 219 223
-0.070312 0.546875 0.013712 219 220 224
-0.066406 0.546875 0.015890 219 220 225
-0.062500 0.546875 0.018057 219 220 225
-0.058594 0.546875 0.020277 220 221 226
-0.054688 0.546875 0.022569 220 221 226
-0.050781 0.546875 0.024848 220 221 226
-0.046875 0.546875 0.027155 220 221 226
-0.042969 0.546875 0.029473 219 220 225
-0.039062 0.546875 0.031795 219 220 225
-0.035156 0.546875 0.034119 220 221 226
-0.031250 0.546875 0.036421 221 222 227
-0.027344 0.546875 0.038681 224 225 230
-0.023438 0.546875 0.040799 227 228 233
-0.019531 0.546875 0.042911 229 230 235
-0.015625 0.546875 0.044876 230 231 236
-0.011719 0.546875 0.046695 230 231 236
-0.007812 0.546875 0.048403 230 231 236
-0.003906 0.546875 0.049913 230 231 235
0.000000 0.546875 0.051732 230 231 235
0.003906 0.546875 0.053544 229 230 234
0.007812 0.546875 0.055521 228 229 233
0.011719 0.546875 0.057605 227 228 232
0.015625 0.546875 0.059388 226 227 231
0.019531 0.546875 0.061573 226 227 231
0.023438 0.546875 0.063098 225 226 230
0.027344 0.546875 0.064209 217 218 222
0.031250 0.546875 0.065340 221 222 226
0.035156 0.546875 0.065909 218 219 223
0.039062 0.546875 0.065809 216 217 221
0.042969 0.546875 0.065344 213 214 218
0.046875 0.546875 0.064471 225 226 230
0.050781 0.546875 0.062628 196 197 201
0.054688 0.546875 0.060571 103 104 108
0.058594 0.546875 0.058144 7 7 9
0.062500 0.546875 0.056186 0 0 2
0.066406 0.546875 0.054390 0 0 2
0.070312 0.546875 0.052737 3 3 5
0.074219 0.546875 0.051399 0 0 2
0.078125 0.546875 0.050124 0 0 2
0.082031 0.546875 0.049529 0 0 2
0.085938 0.546875 0.048835 1 1 3
0.089844 0.546875 0.048567 0 0 2
0.093750 0.546875 0.048093 0 0 2
0.097656 0.546875 0.047638 0 0 2
0.101562 0.546875 0.047331 13 13 15
0.105469 0.546875 0.046919 10 10 12
0.109375 0.546875 0.046476 1 1 3
0.113281 0.546875 0.046023 4 4 6
0.117188 0.546875 0.045725 0 0 2
0.121094 0.546875 0.045389 0 6 0
0.125000 0.546875 0.045088 0 4 0
0.128906 0.546875 0.044664 0 1 0
0.132812 0.546875 0.044031 1 0 0
0.136719 0.546875 0.043277 3 0 0
0.140625 0.546875 0.042513 3 0 0
0.144531 0.546875 0.041652 2 0 1
0.148438 0.546875 0.040833 0 0 1
0.152344 0.546875 0.039949 0 1 0
0.156250 0.546875 0.039009 0 0 0
0.160156 0.546875 0.037810 6 0 0
0.164062 0.546875 0.036552 105 83 86
0.167969 0.546875 0.034700 227 182 192
0.171875 0.546875 0.032582 197 129 145
0.175781 0.546875 0.029857 160 73 94
0.179688 0.546875 0.027103 147 55 78
0.183594 0.546875 0.021780 165 112 123
-0.195312 0.542969 -0.052818 158 159 163
-0.191406 0.542969 -0.050196 216 218 219
-0.187500 0.542969 -0.047314 214 217 217
-0.183594 0.542969 -0.045348 215 218 221
-0.179688 0.542969 -0.043351 217 221 224
-0.175781 0.542969 -0.041540 219 222 225
-0.171875 0.542969 -0.040160 223 226 231
-0.167969 0.542969 -0.038682 230 233 237
-0.164062 0.542969 -0.037124 233 236 240
-0.160156 0.542969 -0.035571 226 229 235
-0.156250 0.542969 -0.034111 222 225 232
-0.152344 0.542969 -0.032603 218 221 228
-0.148438 0.542969 -0.031045 219 222 229
-0.144531 0.542969 -0.029400 223 226 234
-0.140625 0.542969 -0.027726 223 226 235
-0.136719 0.542969 -0.025950 217 220 228
-0.132812 0.542969 -0.024070 211 213 222
-0.128906 0.542969 -0.022127 210 210 219
-0.125000 0.542969 -0.020052 213 213 222
-0.121094 0.542969 -0.017758 215 215 225
-0.117188 0.542969 -0.015180 217 217 227
-0.113281 0.542969 -0.012487 218 218 226
-0.109375 0.542969 -0.009792 219 219 227
-0.105469 0.542969 -0.007030 218 218 226
-0.101562 0.542969 -0.004276 219 219 227
-0.097656 0.542969 -0.001476 220 221 226
-0.093750 0.542969 0.001368 219 220 225
-0.089844 0.542969 0.004158 218 219 224
-0.085938 0.542969 0.006883 218 219 223
-0.082031 0.542969 0.009536 218 219 223
-0.078125 0.542969 0.012089 218 219 223
-0.074219 0.542969 0.014477 218 219 223
-0.070312 0.542969 0.016635 219 220 224
-0.066406 0.542969 0.018732 220 221 226
-0.062500 0.542969 0.020838 220 221 226
-0.058594 0.542969 0.023018 221 222 227
-0.054688 0.542969 0.025284 221 222 227
-0.050781 0.542969 0.027565 221 222 227
-0.046875 0.542969 0.029888 220 221 226
-0.042969 0.542969 0.032221 219 220 225
-0.039062 0.542969 0.034563 218 219 224
-0.035156 0.542969 0.036906 221 222 227
-0.031250 0.542969 0.039224 220 221 226
-0.027344 0.542969 0.041475 219 220 225
-0.023438 0.542969 0.043564 219 220 225
-0.019531 0.542969 0.045615 220 221 226
-0.015625 0.542969 0.047501 222 223 228
-0.011719 0.542969 0.049183 224 225 230
-0.007812 0.542969 0.050787 225 226 231
-0.003906 0.542969 0.052205 224 225 229
0.000000 0.542969 0.053956 224 225 229
0.003906 0.542969 0.055741 223 224 228
0.007812 0.542969 0.057625 223 224 228
0.011719 0.542969 0.059554 222 223 227
0.015625 0.542969 0.061272 221 222 226
0.019531 0.542969 0.063494 221 222 226
0.023438 0.542969 0.065156 221 222 226
0.027344 0.542969 0.066422 215 216 220
0.031250 0.542969 0.067583 214 215 219
0.035156 0.542969 0.068080 215 216 220
0.039062 0.542969 0.068013 221 222 226
0.042969 0.542969 0.067869 213 214 218
0.046875 0.542969 0.067128 217 218 222
0.050781 0.542969 0.065244 204 205 209
0.054688 0.542969 0.063432 136 137 141
0.058594 0.542969 0.061341 44 44 46
0.062500 0.542969 0.059403 9 9 11
0.066406 0.542969 0.057176 0 0 2
0.070312 0.542969 0.055421 6 6 8
0.074219 0.542969 0.054279 6 6 8
0.078125 0.542969 0.052983 1 1 3
0.082031 0.542969 0.052491 2 2 4
0.085938 0.542969 0.051787 4 4 6
0.089844 0.542969 0.051173 11 11 13
0.093750 0.542969 0.050615 6 6 8
0.097656 0.542969 0.050131 0 0 2
0.101562 0.542969 0.049725 11 11 13
0.105469 0.542969 0.049221 0 0 2
0.109375 0.542969 0.048683 1 0 2
0.113281 0.542969 0.048156 14 13 15
0.117188 0.542969 0.047806 12 12 13
0.121094 0.542969 0.047404 0 6 0
0.125000 0.542969 0.047025 0 4 1
0.128906 0.542969 0.046563 1 0 0
0.132812 0.542969 0.045908 3 0 0
0.136719 0.542969 0.045131 3 0 0
0.140625 0.542969 0.044330 2 0 0
0.144531 0.542969 0.043419 0 0 0
0.148438 0.542969 0.042607 0 1 0
0.152344 0.542969 0.041749 8 7 5
0.156250 0.542969 0.040920 6 0 0
0.160156 0.542969 0.039882 29 3 6
0.164062 0.542969 0.038731 171 124 130
0.167969 0.542969 0.037238 223 151 163
0.171875 0.542969 0.035404 184 91 109
0.175781 0.542969 0.032997 166 54 76
0.179688 0.542969 0.030458 180 60 85
0.183594 0.542969 0.026960 200 109 132
0.187500 0.542969 0.021232 137 101 113
-0.199219 0.539062 -0.052449 160 160 162
-0.195312 0.539062 -0.049666 175 175 176
-0.191406 0.539062 -0.047782 181 183 183
-0.187500 0.539062 -0.045790 201 204 205
-0.183594 0.539062 -0.043290 218 222 225
-0.179688 0.539062 -0.041860 222 226 229
-0.175781 0.539062 -0.040642 223 227 230
-0.171875 0.539062 -0.039289 229 232 237
-0.167969 0.539062 -0.038067 234 237 242
-0.164062 0.539062 -0.036805 236 239 243
-0.160156 0.539062 -0.035423 230 233 240
-0.156250 0.539062 -0.033903 225 227 234
-0.152344 0.539062 -0.032179 219 222 229
-0.148438 0.539062 -0.030460 218 221 228
-0.144531 0.539062 -0.028641 221 224 232
-0.140625 0.539062 -0.026793 221 224 232
-0.136719 0.539062 -0.024855 217 220 228
-0.132812 0.539062 -0.022796 210 213 221
-0.128906 0.539062 -0.020698 208 208 217
-0.125000 0.539062 -0.018448 209 209 218
-0.121094 0.539062 -0.015983 212 212 221
-0.117188 0.539062 -0.013173 216 216 225
-0.113281 0.539062 -0.010237 218 218 225
-0.109375 0.539062 -0.007302 219 219 227
-0.105469 0.539062 -0.004316 220 220 228
-0.101562 0.539062 -0.001374 219 219 227
-0.097656 0.539062 0.001581 221 222 227
-0.093750 0.539062 0.004512 220 221 226
-0.089844 0.539062 0.007357 219 220 225
-0.085938 0.539062 0.010076 219 220 224
-0.082031 0.539062 0.012709 218 219 223
-0.078125 0.539062 0.015237 218 219 223
-0.074219 0.539062 0.017566 219 220 224
-0.070312 0.539062 0.019636 219 220 224
-0.066406 0.539062 0.021637 220 221 226
-0.062500 0.539062 0.023671 221 222 227
-0.058594 0.539062 0.025796 221 222 227
-0.054688 0.539062 0.028026 221 222 227
-0.050781 0.539062 0.030286 221 222 227
-0.046875 0.539062 0.032615 221 222 227
-0.042969 0.539062 0.034954 220 221 226
-0.039062 0.539062 0.037294 219 220 225
-0.035156 0.539062 0.039677 221 222 227
-0.031250 0.539062 0.042006 219 220 225
-0.027344 0.539062 0.044248 217 218 223
-0.023438 0.539062 0.046315 216 217 222
-0.019531 0.539062 0.048326 215 216 221
-0.015625 0.539062 0.050171 217 218 223
-0.011719 0.539062 0.051803 219 220 225
-0.007812 0.539062 0.053357 220 221 226
-0.003906 0.539062 0.054792 220 221 225
0.000000 0.539062 0.056493 220 221 225
0.003906 0.539062 0.058216 219 220 224
0.007812 0.539062 0.060026 219 220 224
0.011719 0.539062 0.061859 218 219 223
0.015625 0.539062 0.063480 218 219 223
0.019531 0.539062 0.065491 217 218 222
0.023438 0.539062 0.066925 217 218 222
0.027344 0.539062 0.068037 218 219 223
0.031250 0.539062 0.069098 214 215 219
0.035156 0.539062 0.069546 211 212 216
0.039062 0.539062 0.069464 220 221 225
0.042969 0.539062 0.069136 213 214 218
0.046875 0.539062 0.068284 212 213 217
0.050781 0.539062 0.066644 220 221 225
0.054688 0.539062 0.065175 194 195 199
0.058594 0.539062 0.063483 121 120 125
0.062500 0.539062 0.061689 61 60 64
0.066406 0.539062 0.059778 15 14 19
0.070312 0.539062 0.058389 6 5 10
0.074219 0.539062 0.057170 1 0 5
0.078125 0.539062 0.055816 0 0 4
0.082031 0.539062 0.055160 1 0 5
0.085938 0.539062 0.054319 6 5 10
0.089844 0.539062 0.053632 16 15 20
0.093750 0.539062 0.053023 16 14 19
0.097656 0.539062 0.052428 10 8 13
0.101562 0.539062 0.051925 35 31 37
0.105469 0.539062 0.051323 45 38 45
0.109375 0.539062 0.050719 65 54 60
0.113281 0.539062 0.050126 97 90 94
0.117188 0.539062 0.049727 95 93 98
0.121094 0.539062 0.049260 1 5 2
0.125000 0.539062 0.048804 3 2 1
0.128906 0.539062 0.048297 4 0 0
0.132812 0.539062 0.047618 3 0 0
0.136719 0.539062 0.046809 2 0 0
0.140625 0.539062 0.045970 0 0 0
0.144531 0.539062 0.045022 0 1 0
0.148438 0.539062 0.044191 0 2 0
0.152344 0.539062 0.043321 9 4 0
0.156250 0.539062 0.042494 20 0 0
0.160156 0.539062 0.041542 59 13 16
0.164062 0.539062 0.040458 187 115 126
0.167969 0.539062 0.039178 194 98 112
0.171875 0.539062 0.037675 192 75 94
0.175781 0.539062 0.035697 185 56 78
0.179688 0.539062 0.033800 184 46 69
0.183594 0.539062 0.031313 195 86 113
0.187500 0.539062 0.028512 205 138 154
0.191406 0.539062 0.023641 98 61 79
-0.207031 0.535156 -0.054068 83 87 103
-0.203125 0.535156 -0.051106 206 207 209
-0.199219 0.535156 -0.048633 199 199 199
-0.195312 0.535156 -0.046930 171 171 171
-0.191406 0.535156 -0.045060 177 179 179
-0.187500 0.535156 -0.043324 210 214 215
-0.183594 0.535156 -0.041989 227 230 233
-0.179688 0.535156 -0.040868 225 229 232
-0.175781 0.535156 -0.039765 225 229 232
-0.171875 0.535156 -0.038930 231 233 238
-0.167969 0.535156 -0.038016 234 237 242
-0.164062 0.535156 -0.036919 233 236 241
-0.160156 0.535156 -0.035655 230 233 240
-0.156250 0.535156 -0.034130 225 228 235
-0.152344 0.535156 -0.032353 220 223 230
-0.148438 0.535156 -0.030496 218 221 227
-0.144531 0.535156 -0.028498 219 222 230
-0.140625 0.535156 -0.026423 219 222 230
-0.136719 0.535156 -0.024264 216 219 227
-0.132812 0.535156 -0.022004 212 215 223
-0.128906 0.535156 -0.019715 208 208 217
-0.125000 0.535156 -0.017224 208 208 216
-0.121094 0.535156 -0.014512 210 210 219
-0.117188 0.535156 -0.011423 213 213 222
-0.113281 0.535156 -0.008197 218 218 225
-0.109375 0.535156 -0.004973 219 219 227
-0.105469 0.535156 -0.001710 220 220 228
-0.101562 0.535156 0.001462 221 221 229
-0.097656 0.535156 0.004606 222 223 228
-0.093750 0.535156 0.007658 221 222 227
-0.089844 0.535156 0.010591 220 221 226
-0.085938 0.535156 0.013336 219 220 224
-0.082031 0.535156 0.015986 219 220 224
-0.078125 0.535156 0.018495 219 220 224
-0.074219 0.535156 0.020770 219 220 224
-0.070312 0.535156 0.022754 219 220 224
-0.066406 0.535156 0.024647 219 220 225
-0.062500 0.535156 0.026592 219 220 225
-0.058594 0.535156 0.028655 220 221 226
-0.054688 0.535156 0.030859 221 222 227
-0.050781 0.535156 0.033107 221 222 227
-0.046875 0.535156 0.035430 221 222 227
-0.042969 0.535156 0.037771 220 221 226
-0.039062 0.535156 0.040152 220 221 226
-0.035156 0.535156 0.042557 218 219 224
-0.031250 0.535156 0.044863 218 219 224
-0.027344 0.535156 0.047066 217 218 223
-0.023438 0.535156 0.049065 217 218 223
-0.019531 0.535156 0.050987 217 218 223
-0.015625 0.535156 0.052738 217 218 223
-0.011719 0.535156 0.054292 217 218 223
-0.007812 0.535156 0.055748 218 219 224
-0.003906 0.535156 0.057135 218 219 223
0.000000 0.535156 0.058713 218 219 223
0.003906 0.535156 0.060304 217 218 222
0.007812 0.535156 0.062030 217 218 222
0.011719 0.535156 0.063779 217 218 222
0.015625 0.535156 0.065246 216 217 221
0.019531 0.535156 0.066889 216 217 221
0.023438 0.535156 0.068122 216 217 221
0.027344 0.535156 0.069223 217 218 222
0.031250 0.535156 0.070199 219 220 224
0.035156 0.535156 0.070546 210 211 215
0.039062 0.535156 0.070530 218 219 223
0.042969 0.535156 0.070182 217 218 222
0.046875 0.535156 0.069486 212 213 217
0.050781 0.535156 0.068330 223 224 228
0.054688 0.535156 0.067059 218 219 223
0.058594 0.535156 0.065550 198 197 202
0.062500 0.535156 0.064041 152 150 155
0.066406 0.535156 0.062685 115 114 119
0.070312 0.535156 0.061048 101 99 105
0.074219 0.535156 0.059605 96 94 99
0.078125 0.535156 0.058356 105 102 108
0.082031 0.535156 0.057555 119 115 122
0.085938 0.535156 0.056643 125 120 127
0.089844 0.535156 0.055876 154 148 155
0.093750 0.535156 0.055195 171 165 172
0.097656 0.535156 0.054529 167 159 167
0.101562 0.535156 0.053962 177 164 173
0.105469 0.535156 0.053325 161 141 153
0.109375 0.535156 0.052689 142 114 125
0.113281 0.535156 0.052047 127 109 115
0.117188 0.535156 0.051592 91 87 92
0.121094 0.535156 0.051058 4 5 4
0.125000 0.535156 0.050530 5 2 3
0.128906 0.535156 0.049971 6 0 1
0.132812 0.535156 0.049277 5 0 0
0.136719 0.535156 0.048469 2 0 0
0.140625 0.535156 0.047621 0 0 0
0.144531 0.535156 0.046661 0 3 0
0.148438 0.535156 0.045806 0 4 0
0.152344 0.535156 0.044920 6 0 0
0.156250 0.535156 0.044145 37 3 2
0.160156 0.535156 0.043265 93 26 33
0.164062 0.535156 0.042228 183 85 98
0.167969 0.535156 0.041041 196 73 91
0.171875 0.535156 0.039640 212 73 94
0.175781 0.535156 0.038003 204 56 78
0.179688 0.535156 0.036392 186 37 57
0.183594 0.535156 0.034054 181 58 87
0.187500 0.535156 0.031866 213 132 149
0.191406 0.535156 0.028554 94 65 76
0.195312 0.535156 0.023706 41 19 35
-0.210938 0.531250 -0.049992 192 206 226
-0.207031 0.531250 -0.049512 223 224 229
-0.203125 0.531250 -0.049405 209 208 209
-0.199219 0.531250 -0.047482 175 175 176
-0.195312 0.531250 -0.045848 151 151 151
-0.191406 0.531250 -0.044336 170 173 173
-0.187500 0.531250 -0.042779 216 220 221
-0.183594 0.531250 -0.041444 230 234 237
-0.179688 0.531250 -0.040320 226 230 233
-0.175781 0.531250 -0.039360 226 229 232
-0.171875 0.531250 -0.038597 230 233 238
-0.167969 0.531250 -0.037638 232 235 240
-0.164062 0.531250 -0.036464 231 233 238
-0.160156 0.531250 -0.035126 229 232 238
-0.156250 0.531250 -0.033505 225 228 234
-0.152344 0.531250 -0.031615 221 223 230
-0.148438 0.531250 -0.029625 217 220 227
-0.144531 0.531250 -0.027484 217 220 228
-0.140625 0.531250 -0.025256 216 219 227
-0.136719 0.531250 -0.022981 215 218 226
-0.132812 0.531250 -0.020620 212 215 223
-0.128906 0.531250 -0.018222 209 209 217
-0.125000 0.531250 -0.015572 206 206 215
-0.121094 0.531250 -0.012652 206 206 215
-0.117188 0.531250 -0.009245 209 209 218
-0.113281 0.531250 -0.005717 214 214 221
-0.109375 0.531250 -0.002251 219 219 226
-0.105469 0.531250 0.001247 221 221 229
-0.101562 0.531250 0.004593 222 222 230
-0.097656 0.531250 0.007868 221 222 227
-0.093750 0.531250 0.011010 222 223 228
-0.089844 0.531250 0.014004 221 222 227
-0.085938 0.531250 0.016796 220 221 225
-0.082031 0.531250 0.019480 219 220 224
-0.078125 0.531250 0.021999 219 220 224
-0.074219 0.531250 0.024256 219 220 224
-0.070312 0.531250 0.026186 219 220 224
-0.066406 0.531250 0.028008 217 218 223
-0.062500 0.531250 0.029874 218 219 224
-0.058594 0.531250 0.031856 219 220 225
-0.054688 0.531250 0.034023 220 221 226
-0.050781 0.531250 0.036223 220 221 226
-0.046875 0.531250 0.038519 220 221 226
-0.042969 0.531250 0.040875 220 221 226
-0.039062 0.531250 0.043259 219 220 225
-0.035156 0.531250 0.045658 215 216 221
-0.031250 0.531250 0.047949 216 217 222
-0.027344 0.531250 0.050125 218 219 224
-0.023438 0.531250 0.052089 220 221 226
-0.019531 0.531250 0.053954 220 221 226
-0.015625 0.531250 0.055648 219 220 225
-0.011719 0.531250 0.057147 218 219 224
-0.007812 0.531250 0.058539 217 218 223
-0.003906 0.531250 0.059854 217 218 222
0.000000 0.531250 0.061370 217 218 222
0.003906 0.531250 0.062869 217 218 222
0.007812 0.531250 0.064425 217 218 222
0.011719 0.531250 0.065913 217 218 222
0.015625 0.531250 0.067172 216 217 221
0.019531 0.531250 0.068522 216 217 221
0.023438 0.531250 0.069627 216 217 221
0.027344 0.531250 0.070616 212 213 217
0.031250 0.531250 0.071392 222 223 227
0.035156 0.531250 0.071652 211 212 216
0.039062 0.531250 0.071634 218 219 223
0.042969 0.531250 0.071281 224 225 229
0.046875 0.531250 0.070501 213 214 218
0.050781 0.531250 0.069341 215 216 220
0.054688 0.531250 0.068122 211 212 216
0.058594 0.531250 0.066945 219 218 222
0.062500 0.531250 0.065935 209 208 213
0.066406 0.531250 0.064789 204 203 208
0.070312 0.531250 0.063414 199 197 202
0.074219 0.531250 0.062128 195 191 197
0.078125 0.531250 0.060947 202 197 204
0.082031 0.531250 0.060068 210 203 210
0.085938 0.531250 0.059018 204 197 204
0.089844 0.531250 0.058171 202 195 202
0.093750 0.531250 0.057432 219 212 219
0.097656 0.531250 0.056687 195 187 194
0.101562 0.531250 0.056040 185 172 181
0.105469 0.531250 0.055337 174 150 163
0.109375 0.531250 0.054654 162 125 139
0.113281 0.531250 0.053955 140 114 122
0.117188 0.531250 0.053419 67 64 69
0.121094 0.531250 0.052809 4 4 6
0.125000 0.531250 0.052195 5 2 5
0.128906 0.531250 0.051565 8 0 1
0.132812 0.531250 0.050839 7 0 0
0.136719 0.531250 0.050022 2 0 0
0.140625 0.531250 0.049171 0 1 0
0.144531 0.531250 0.048221 0 5 0
0.148438 0.531250 0.047332 0 4 0
0.152344 0.531250 0.046419 10 0 0
0.156250 0.531250 0.045652 54 5 8
0.160156 0.531250 0.044762 126 40 51
0.164062 0.531250 0.043683 192 71 88
0.167969 0.531250 0.042495 224 78 99
0.171875 0.531250 0.041053 226 70 92
0.175781 0.531250 0.039450 212 55 74
0.179688 0.531250 0.038154 202 47 65
0.183594 0.531250 0.036311 166 35 66
0.187500 0.531250 0.034424 220 128 147
0.191406 0.531250 0.032183 153 123 129
0.195312 0.531250 0.029854 91 56 73
0.199219 0.531250 0.026540 91 52 78
-0.210938 0.527344 -0.047178 223 223 235
-0.207031 0.527344 -0.045319 212 211 214
-0.203125 0.527344 -0.046886 183 183 183
-0.199219 0.527344 -0.046811 164 164 164
-0.195312 0.527344 -0.045549 156 156 156
-0.191406 0.527344 -0.043942 178 180 180
-0.187500 0.527344 -0.042435 217 221 223
-0.183594 0.527344 -0.040979 227 231 234
-0.179688 0.527344 -0.039840 226 230 233
-0.175781 0.527344 -0.038809 227 231 233
-0.171875 0.527344 -0.037945 228 231 236
-0.167969 0.527344 -0.036864 229 232 236
-0.164062 0.527344 -0.035603 228 231 236
-0.160156 0.527344 -0.034205 231 233 239
-0.156250 0.527344 -0.032452 226 229 235
-0.152344 0.527344 -0.030439 220 222 229
-0.148438 0.527344 -0.028337 215 218 225
-0.144531 0.527344 -0.026072 215 217 226
-0.140625 0.527344 -0.023719 215 217 226
-0.136719 0.527344 -0.021364 215 217 225
-0.132812 0.527344 -0.018942 213 216 224
-0.128906 0.527344 -0.016464 208 208 217
-0.125000 0.527344 -0.013697 204 204 213
-0.121094 0.527344 -0.010631 202 202 210
-0.117188 0.527344 -0.006993 202 202 211
-0.113281 0.527344 -0.003161 208 208 215
-0.109375 0.527344 0.000570 214 214 222
-0.105469 0.527344 0.004289 218 218 226
-0.101562 0.527344 0.007805 222 222 230
-0.097656 0.527344 0.011216 220 221 226
-0.093750 0.527344 0.014459 221 222 227
-0.089844 0.527344 0.017540 221 222 227
-0.085938 0.527344 0.020385 220 221 225
-0.082031 0.527344 0.023125 220 221 225
-0.078125 0.527344 0.025684 220 221 225
-0.074219 0.527344 0.027951 221 222 226
-0.070312 0.527344 0.029856 221 222 226
-0.066406 0.527344 0.031638 220 221 226
-0.062500 0.527344 0.033439 220 221 226
-0.058594 0.527344 0.035344 220 221 226
-0.054688 0.527344 0.037461 219 220 225
-0.050781 0.527344 0.039644 219 220 225
-0.046875 0.527344 0.041937 218 219 224
-0.042969 0.527344 0.044272 218 219 224
-0.039062 0.527344 0.046622 218 219 224
-0.035156 0.527344 0.048983 219 220 225
-0.031250 0.527344 0.051227 219 220 225
-0.027344 0.527344 0.053346 219 220 225
-0.023438 0.527344 0.055243 218 219 224
-0.019531 0.527344 0.057027 218 219 224
-0.015625 0.527344 0.058675 217 218 223
-0.011719 0.527344 0.060117 217 218 223
-0.007812 0.527344 0.061476 217 218 223
-0.003906 0.527344 0.062740 216 217 221
0.000000 0.527344 0.064072 216 217 221
0.003906 0.527344 0.065442 216 217 221
0.007812 0.527344 0.066825 216 217 221
0.011719 0.527344 0.068059 216 217 221
0.015625 0.527344 0.069082 216 217 221
0.019531 0.527344 0.070084 216 217 221
0.023438 0.527344 0.070888 216 217 221
0.027344 0.527344 0.071568 216 217 221
0.031250 0.527344 0.072165 216 217 221
0.035156 0.527344 0.072475 216 217 221
0.039062 0.527344 0.072519 216 217 221
0.042969 0.527344 0.072280 216 217 221
0.046875 0.527344 0.071781 216 217 221
0.050781 0.527344 0.071123 216 217 221
0.054688 0.527344 0.070337 216 217 221
0.058594 0.527344 0.069529 209 208 213
0.062500 0.527344 0.068574 210 209 214
0.066406 0.527344 0.067479 211 210 215
0.070312 0.527344 0.066316 211 210 215
0.074219 0.527344 0.065013 211 209 214
0.078125 0.527344 0.063789 211 209 214
0.082031 0.527344 0.062709 210 207 212
0.085938 0.527344 0.061487 208 206 211
0.089844 0.527344 0.060530 211 209 214
0.093750 0.527344 0.059643 214 212 217
0.097656 0.527344 0.058794 204 200 206
0.101562 0.527344 0.058056 207 199 206
0.105469 0.527344 0.057285 188 171 181
0.109375 0.527344 0.056524 161 128 141
0.113281 0.527344 0.055741 131 109 116
0.117188 0.527344 0.055113 45 42 47
0.121094 0.527344 0.054411 0 0 2
0.125000 0.527344 0.053711 4 0 2
0.128906 0.527344 0.053034 9 0 3
0.132812 0.527344 0.052298 10 0 2
0.136719 0.527344 0.051486 5 0 1
0.140625 0.527344 0.050651 0 2 0
0.144531 0.527344 0.049722 0 3 0
0.148438 0.527344 0.048808 0 2 0
0.152344 0.527344 0.047873 13 0 0
0.156250 0.527344 0.047090 69 8 13
0.160156 0.527344 0.046159 139 34 49
0.164062 0.527344 0.045045 198 54 77
0.167969 0.527344 0.043820 231 67 92
0.171875 0.527344 0.042331 236 68 91
0.175781 0.527344 0.040736 221 60 78
0.179688 0.527344 0.039501 205 50 64
0.183594 0.527344 0.038204 172 39 70
0.187500 0.527344 0.036599 187 90 110
0.191406 0.527344 0.034395 227 183 189
0.195312 0.527344 0.032857 156 132 139
0.199219 0.527344 0.030026 129 91 111
0.203125 0.527344 0.025298 90 65 82
-0.210938 0.523438 -0.049606 230 227 235
-0.207031 0.523438 -0.047195 193 189 192
-0.203125 0.523438 -0.047262 159 158 159
-0.199219 0.523438 -0.047080 158 158 158
-0.195312 0.523438 -0.045940 163 163 163
-0.191406 0.523438 -0.044655 186 188 188
-0.187500 0.523438 -0.043141 219 223 225
-0.183594 0.523438 -0.041519 227 231 234
-0.179688 0.523438 -0.040025 225 229 232
-0.175781 0.523438 -0.038472 225 229 232
-0.171875 0.523438 -0.037166 228 231 236
-0.167969 0.523438 -0.035687 228 231 236
-0.164062 0.523438 -0.034067 229 231 236
-0.160156 0.523438 -0.032342 231 234 240
-0.156250 0.523438 -0.030322 227 230 236
-0.152344 0.523438 -0.028104 221 223 230
-0.148438 0.523438 -0.025853 216 219 225
-0.144531 0.523438 -0.023484 214 216 225
-0.140625 0.523438 -0.021086 213 216 224
-0.136719 0.523438 -0.018757 213 215 223
-0.132812 0.523438 -0.016383 211 213 221
-0.128906 0.523438 -0.013918 208 208 216
-0.125000 0.523438 -0.011080 204 204 212
-0.121094 0.523438 -0.007854 200 200 208
-0.117188 0.523438 -0.004028 200 200 208
-0.113281 0.523438 -0.000015 203 203 210
-0.109375 0.523438 0.003861 210 210 218
-0.105469 0.523438 0.007662 217 217 225
-0.101562 0.523438 0.011245 221 221 229
-0.097656 0.523438 0.014702 221 222 227
-0.093750 0.523438 0.017993 221 222 227
-0.089844 0.523438 0.021128 221 222 227
-0.085938 0.523438 0.024032 221 222 226
-0.082031 0.523438 0.026861 220 221 225
-0.078125 0.523438 0.029496 220 221 225
-0.074219 0.523438 0.031820 221 222 226
-0.070312 0.523438 0.033733 221 222 226
-0.066406 0.523438 0.035481 220 221 226
-0.062500 0.523438 0.037253 220 221 226
-0.058594 0.523438 0.039143 220 221 226
-0.054688 0.523438 0.041265 219 220 225
-0.050781 0.523438 0.043457 219 220 225
-0.046875 0.523438 0.045737 218 219 224
-0.042969 0.523438 0.048042 218 219 224
-0.039062 0.523438 0.050345 218 219 224
-0.035156 0.523438 0.052640 219 220 225
-0.031250 0.523438 0.054820 219 220 225
-0.027344 0.523438 0.056873 219 220 225
-0.023438 0.523438 0.058718 218 219 224
-0.019531 0.523438 0.060449 218 219 224
-0.015625 0.523438 0.062050 217 218 223
-0.011719 0.523438 0.063434 217 218 223
-0.007812 0.523438 0.064704 217 218 223
-0.003906 0.523438 0.065873 216 217 221
0.000000 0.523438 0.067006 216 217 221
0.003906 0.523438 0.068120 216 217 221
0.007812 0.523438 0.069282 216 217 221
0.011719 0.523438 0.070418 216 217 221
0.015625 0.523438 0.071303 216 217 221
0.019531 0.523438 0.072033 216 217 221
0.023438 0.523438 0.072604 216 217 221
0.027344 0.523438 0.073069 216 217 221
0.031250 0.523438 0.073537 216 217 221
0.035156 0.523438 0.073841 216 217 221
0.039062 0.523438 0.073891 216 217 221
0.042969 0.523438 0.073751 216 217 221
0.046875 0.523438 0.073408 216 217 221
0.050781 0.523438 0.073038 216 217 221
0.054688 0.523438 0.072482 216 217 221
0.058594 0.523438 0.071709 215 214 220
0.062500 0.523438 0.070830 216 215 221
0.066406 0.523438 0.069851 218 217 223
0.070312 0.523438 0.068691 218 217 223
0.074219 0.523438 0.067404 218 217 223
0.078125 0.523438 0.066227 218 216 222
0.082031 0.523438 0.065013 216 215 221
0.085938 0.523438 0.063778 215 214 220
0.089844 0.523438 0.062775 214 213 219
0.093750 0.523438 0.061791 216 215 221
0.097656 0.523438 0.060855 210 208 214
0.101562 0.523438 0.060007 212 208 215
0.105469 0.523438 0.059140 186 174 182
0.109375 0.523438 0.058291 160 132 143
0.113281 0.523438 0.057414 119 101 108
0.117188 0.523438 0.056678 26 24 30
0.121094 0.523438 0.055884 0 1 2
0.125000 0.523438 0.055095 2 0 3
0.128906 0.523438 0.054357 9 0 3
0.132812 0.523438 0.053603 11 0 4
0.136719 0.523438 0.052797 6 0 1
0.140625 0.523438 0.051980 0 3 0
0.144531 0.523438 0.051068 0 4 0
0.148438 0.523438 0.050134 0 2 0
0.152344 0.523438 0.049191 18 0 0
0.156250 0.523438 0.048405 87 16 22
0.160156 0.523438 0.047433 160 39 58
0.164062 0.523438 0.046235 212 52 78
0.167969 0.523438 0.044897 240 61 90
0.171875 0.523438 0.043225 240 66 89
0.175781 0.523438 0.041553 222 61 77
0.179688 0.523438 0.040308 202 55 65
0.183594 0.523438 0.039159 181 50 82
0.187500 0.523438 0.038093 180 85 105
0.191406 0.523438 0.036472 222 181 185
0.195312 0.523438 0.034867 168 154 155
0.199219 0.523438 0.032632 108 82 95
0.203125 0.523438 0.028957 88 53 76
0.207031 0.523438 0.023543 30 16 22
-0.207031 0.519531 -0.051612 219 215 217
-0.203125 0.519531 -0.050095 166 165 165
-0.199219 0.519531 -0.048035 159 159 159
-0.195312 0.519531 -0.046163 166 166 167
-0.191406 0.519531 -0.045396 190 193 193
-0.187500 0.519531 -0.044056 219 222 225
-0.183594 0.519531 -0.042158 225 229 232
-0.179688 0.519531 -0.040207 224 228 231
-0.175781 0.519531 -0.038237 224 228 231
-0.171875 0.519531 -0.036493 226 229 234
-0.167969 0.519531 -0.034567 228 230 235
-0.164062 0.519531 -0.032513 229 232 237
-0.160156 0.519531 -0.030382 231 234 241
-0.156250 0.519531 -0.028062 228 231 238
-0.152344 0.519531 -0.025621 222 225 232
-0.148438 0.519531 -0.023246 217 220 226
-0.144531 0.519531 -0.020809 213 216 225
-0.140625 0.519531 -0.018343 211 214 222
-0.136719 0.519531 -0.016003 211 213 221
-0.132812 0.519531 -0.013720 209 212 219
-0.128906 0.519531 -0.011346 208 208 217
-0.125000 0.519531 -0.008467 205 205 213
-0.121094 0.519531 -0.005118 201 201 210
-0.117188 0.519531 -0.001118 200 200 209
-0.113281 0.519531 0.003070 202 202 209
-0.109375 0.519531 0.007074 208 208 216
-0.105469 0.519531 0.010962 216 216 224
-0.101562 0.519531 0.014616 221 221 229
-0.097656 0.519531 0.018114 221 222 227
-0.093750 0.519531 0.021456 221 222 227
-0.089844 0.519531 0.024640 221 222 227
-0.085938 0.519531 0.027624 221 222 226
-0.082031 0.519531 0.030541 221 222 226
-0.078125 0.519531 0.033244 221 222 226
-0.074219 0.519531 0.035622 221 222 226
-0.070312 0.519531 0.037571 221 222 226
-0.066406 0.519531 0.039337 220 221 226
-0.062500 0.519531 0.041127 220 221 226
-0.058594 0.519531 0.043015 220 221 226
-0.054688 0.519531 0.045135 219 220 225
-0.050781 0.519531 0.047321 219 220 225
-0.046875 0.519531 0.049573 218 219 224
-0.042969 0.519531 0.051831 218 219 224
-0.039062 0.519531 0.054057 218 219 224
-0.035156 0.519531 0.056255 219 220 225
-0.031250 0.519531 0.058347 219 220 225
-0.027344 0.519531 0.060315 219 220 225
-0.023438 0.519531 0.062101 218 219 224
-0.019531 0.519531 0.063776 218 219 224
-0.015625 0.519531 0.065315 217 218 223
-0.011719 0.519531 0.066657 217 218 223
-0.007812 0.519531 0.067876 217 218 223
-0.003906 0.519531 0.069002 216 217 221
0.000000 0.519531 0.070047 216 217 221
0.003906 0.519531 0.071028 216 217 221
0.007812 0.519531 0.071907 216 217 221
0.011719 0.519531 0.072713 216 217 221
0.015625 0.519531 0.073492 216 217 221
0.019531 0.519531 0.074124 216 217 221
0.023438 0.519531 0.074558 216 217 221
0.027344 0.519531 0.074927 216 217 221
0.031250 0.519531 0.075284 216 217 221
0.035156 0.519531 0.075508 216 217 221
0.039062 0.519531 0.075612 216 217 221
0.042969 0.519531 0.075625 216 217 221
0.046875 0.519531 0.075347 216 217 221
0.050781 0.519531 0.074999 216 217 221
0.054688 0.519531 0.074569 216 217 221
0.058594 0.519531 0.073970 214 213 219
0.062500 0.519531 0.073296 215 214 220
0.066406 0.519531 0.072366 216 215 221
0.070312 0.519531 0.071213 217 216 222
0.074219 0.519531 0.069926 217 216 222
0.078125 0.519531 0.068637 216 215 221
0.082031 0.519531 0.067310 215 214 220
0.085938 0.519531 0.066037 214 213 219
0.089844 0.519531 0.064962 216 215 221
0.093750 0.519531 0.063914 216 215 221
0.097656 0.519531 0.062902 214 212 218
0.101562 0.519531 0.061947 216 212 219
0.105469 0.519531 0.060965 185 173 181
0.109375 0.519531 0.060005 167 137 147
0.113281 0.519531 0.059017 103 86 91
0.117188 0.519531 0.058163 6 4 10
0.121094 0.519531 0.057294 0 2 2
0.125000 0.519531 0.056443 2 0 3
0.128906 0.519531 0.055653 10 0 3
0.132812 0.519531 0.054874 12 0 3
0.136719 0.519531 0.054061 8 0 1
0.140625 0.519531 0.053259 0 3 0
0.144531 0.519531 0.052374 0 5 0
0.148438 0.519531 0.051444 0 3 0
0.152344 0.519531 0.050507 27 0 0
0.156250 0.519531 0.049727 104 24 33
0.160156 0.519531 0.048726 172 38 62
0.164062 0.519531 0.047436 211 38 68
0.167969 0.519531 0.045969 236 49 80
0.171875 0.519531 0.044164 238 62 85
0.175781 0.519531 0.042418 218 66 79
0.179688 0.519531 0.041208 201 66 72
0.183594 0.519531 0.040140 181 56 88
0.187500 0.519531 0.039173 172 83 103
0.191406 0.519531 0.038041 207 169 174
0.195312 0.519531 0.036465 182 169 169
0.199219 0.519531 0.034008 133 102 114
0.203125 0.519531 0.031174 117 64 92
0.207031 0.519531 0.026135 66 26 48
0.210938 0.519531 0.020834 2 1 2
-0.207031 0.515625 -0.021339 231 229 230
-0.203125 0.515625 -0.053705 171 171 172
-0.199219 0.515625 -0.049240 158 158 159
-0.195312 0.515625 -0.047432 166 167 167
-0.191406 0.515625 -0.046421 190 194 195
-0.187500 0.515625 -0.044936 219 222 225
-0.183594 0.515625 -0.043018 224 228 230
-0.179688 0.515625 -0.040872 223 227 230
-0.175781 0.515625 -0.038584 224 227 230
-0.171875 0.515625 -0.036510 225 228 232
-0.167969 0.515625 -0.034253 226 229 234
-0.164062 0.515625 -0.031845 228 230 235
-0.160156 0.515625 -0.029344 229 232 239
-0.156250 0.515625 -0.026716 228 231 238
-0.152344 0.515625 -0.024012 224 227 233
-0.148438 0.515625 -0.021392 219 222 228
-0.144531 0.515625 -0.018730 213 216 224
-0.140625 0.515625 -0.016085 210 213 221
-0.136719 0.515625 -0.013624 209 211 219
-0.132812 0.515625 -0.011192 207 209 217
-0.128906 0.515625 -0.008721 209 209 218
-0.125000 0.515625 -0.005724 206 206 215
-0.121094 0.515625 -0.002205 204 204 213
-0.117188 0.515625 0.001945 202 202 211
-0.113281 0.515625 0.006255 203 203 210
-0.109375 0.515625 0.010306 209 209 216
-0.105469 0.515625 0.014225 216 216 223
-0.101562 0.515625 0.017899 222 222 229
-0.097656 0.515625 0.021421 221 222 227
-0.093750 0.515625 0.024785 222 223 228
