ply
    format ascii 1.0
    element vertex 74588
    property float x
    property float y
    property float z
    property uchar red
    property uchar green
    property uchar blue
    end_header
0.199219 -0.054688 0.081961 239 237 243
0.203125 -0.054688 0.079308 239 237 243
0.207031 -0.054688 0.076509 238 236 242
0.210938 -0.054688 0.073607 237 235 242
0.214844 -0.054688 0.070432 236 234 241
0.218750 -0.054688 0.066919 235 232 240
0.222656 -0.054688 0.062935 234 230 239
0.226562 -0.054688 0.058277 232 228 237
0.230469 -0.054688 0.052961 233 227 236
0.234375 -0.054688 0.046776 234 225 233
0.238281 -0.054688 0.040125 232 221 228
0.242188 -0.054688 0.034062 236 227 230
0.246094 -0.054688 0.027288 236 230 231
0.250000 -0.054688 0.019690 241 238 238
0.253906 -0.054688 0.011860 240 240 236
0.257812 -0.054688 0.001004 117 110 106
0.269531 -0.054688 -0.032142 237 219 201
0.273438 -0.054688 -0.045992 222 183 164
0.277344 -0.054688 -0.005681 237 198 184
0.281250 -0.054688 -0.002832 231 177 160
0.285156 -0.054688 -0.001876 225 177 151
0.289062 -0.054688 -0.006320 220 165 140
0.292969 -0.054688 -0.013047 200 132 110
0.296875 -0.054688 -0.017600 203 141 117
0.300781 -0.054688 -0.019085 220 169 151
0.304688 -0.054688 -0.019517 227 185 172
0.308594 -0.054688 -0.019192 227 191 179
0.312500 -0.054688 -0.021886 225 192 182
0.316406 -0.054688 -0.026115 208 181 169
0.320312 -0.054688 -0.035168 183 168 162
-0.234375 -0.058594 0.084473 107 85 85
-0.230469 -0.058594 0.088185 208 173 165
-0.226562 -0.058594 0.091970 218 176 167
-0.222656 -0.058594 0.095872 159 99 88
-0.218750 -0.058594 0.096410 166 104 90
-0.214844 -0.058594 0.099318 225 183 166
-0.210938 -0.058594 0.099622 228 187 171
-0.207031 -0.058594 0.095651 166 100 90
-0.203125 -0.058594 0.092861 160 90 83
-0.199219 -0.058594 0.092819 214 152 149
-0.195312 -0.058594 0.093422 229 170 170
-0.191406 -0.058594 0.092014 237 185 184
-0.187500 -0.058594 0.090029 232 183 185
-0.183594 -0.058594 0.087606 238 209 211
-0.179688 -0.058594 0.081276 236 214 216
-0.175781 -0.058594 0.068684 149 116 122
-0.171875 -0.058594 0.064521 148 92 100
-0.167969 -0.058594 0.066049 207 131 140
-0.164062 -0.058594 0.068123 250 225 221
-0.160156 -0.058594 0.069374 254 253 252
-0.156250 -0.058594 0.069752 254 254 254
-0.152344 -0.058594 0.070234 254 253 252
-0.148438 -0.058594 0.071792 252 246 247
-0.144531 -0.058594 0.073431 242 234 238
-0.140625 -0.058594 0.074611 239 233 238
-0.136719 -0.058594 0.075732 239 236 240
-0.132812 -0.058594 0.076832 241 240 242
-0.128906 -0.058594 0.077833 241 239 242
-0.125000 -0.058594 0.078741 240 238 242
-0.121094 -0.058594 0.079547 239 237 242
-0.117188 -0.058594 0.080157 239 236 241
-0.113281 -0.058594 0.080693 239 236 241
-0.109375 -0.058594 0.081091 239 237 240
-0.105469 -0.058594 0.081565 239 237 241
-0.101562 -0.058594 0.082164 239 237 240
-0.097656 -0.058594 0.082668 240 237 241
-0.093750 -0.058594 0.083177 240 237 241
-0.089844 -0.058594 0.083626 240 237 241
-0.085938 -0.058594 0.084022 241 237 241
-0.082031 -0.058594 0.084341 241 237 241
-0.078125 -0.058594 0.084562 241 237 241
-0.074219 -0.058594 0.084685 241 237 241
-0.070312 -0.058594 0.084660 242 237 241
-0.066406 -0.058594 0.084597 242 238 241
-0.062500 -0.058594 0.084394 242 238 241
-0.058594 -0.058594 0.084161 243 238 241
-0.054688 -0.058594 0.083878 243 238 241
-0.050781 -0.058594 0.083503 243 238 241
-0.046875 -0.058594 0.083003 243 238 241
-0.042969 -0.058594 0.082398 244 238 241
-0.039062 -0.058594 0.081650 244 239 242
-0.035156 -0.058594 0.080766 244 239 242
-0.031250 -0.058594 0.079784 244 239 242
-0.027344 -0.058594 0.078617 244 239 242
-0.023438 -0.058594 0.077266 244 239 242
-0.019531 -0.058594 0.075805 244 239 242
-0.015625 -0.058594 0.074268 243 238 241
-0.011719 -0.058594 0.072588 244 239 241
-0.007812 -0.058594 0.070816 244 239 242
-0.003906 -0.058594 0.068954 243 239 242
0.000000 -0.058594 0.067037 243 239 242
0.003906 -0.058594 0.064897 242 238 241
0.007812 -0.058594 0.062405 242 237 240
0.011719 -0.058594 0.059811 241 236 240
0.015625 -0.058594 0.057194 240 235 240
0.019531 -0.058594 0.054483 240 235 240
0.023438 -0.058594 0.051456 240 235 240
0.027344 -0.058594 0.048095 239 234 239
0.031250 -0.058594 0.044482 239 233 238
0.035156 -0.058594 0.041102 237 232 237
0.039062 -0.058594 0.038187 234 229 235
0.042969 -0.058594 0.035925 225 221 229
0.046875 -0.058594 0.035373 215 213 223
0.050781 -0.058594 0.037683 222 220 228
0.054688 -0.058594 0.043178 229 226 233
0.058594 -0.058594 0.048923 230 225 233
0.062500 -0.058594 0.054073 233 228 235
0.066406 -0.058594 0.058784 232 228 235
0.070312 -0.058594 0.062849 231 226 234
0.074219 -0.058594 0.066915 233 228 236
0.078125 -0.058594 0.071070 233 228 236
0.082031 -0.058594 0.074917 234 229 237
0.085938 -0.058594 0.078307 235 230 238
0.089844 -0.058594 0.081456 236 231 239
0.093750 -0.058594 0.084436 236 232 240
0.097656 -0.058594 0.087175 237 233 240
0.101562 -0.058594 0.089802 238 234 241
0.105469 -0.058594 0.092252 239 235 241
0.109375 -0.058594 0.094469 240 236 242
0.113281 -0.058594 0.096431 240 236 242
0.117188 -0.058594 0.098076 241 237 243
0.121094 -0.058594 0.099463 241 237 243
0.125000 -0.058594 0.100653 242 238 243
0.128906 -0.058594 0.101558 242 238 243
0.132812 -0.058594 0.102133 242 238 243
0.136719 -0.058594 0.102460 242 238 243
0.140625 -0.058594 0.102645 242 239 243
0.144531 -0.058594 0.102569 243 239 243
0.148438 -0.058594 0.102272 243 239 243
0.152344 -0.058594 0.101700 242 239 243
0.156250 -0.058594 0.101021 242 239 243
0.160156 -0.058594 0.100077 242 239 243
0.164062 -0.058594 0.098880 242 238 243
0.167969 -0.058594 0.097399 242 238 243
0.171875 -0.058594 0.095815 242 238 243
0.175781 -0.058594 0.094055 242 238 243
0.179688 -0.058594 0.092219 242 238 243
0.183594 -0.058594 0.090273 241 238 243
0.187500 -0.058594 0.088315 241 238 243
0.191406 -0.058594 0.086259 241 238 243
0.195312 -0.058594 0.083963 240 237 243
0.199219 -0.058594 0.081565 240 237 243
0.203125 -0.058594 0.078916 239 237 243
0.207031 -0.058594 0.076118 238 236 242
0.210938 -0.058594 0.073218 237 235 241
0.214844 -0.058594 0.070049 236 234 240
0.218750 -0.058594 0.066508 235 232 240
0.222656 -0.058594 0.062500 234 230 238
0.226562 -0.058594 0.057782 233 227 236
0.230469 -0.058594 0.052404 234 226 235
0.234375 -0.058594 0.046094 234 223 232
0.238281 -0.058594 0.039254 233 220 228
0.242188 -0.058594 0.033224 237 226 230
0.246094 -0.058594 0.026277 240 232 234
0.250000 -0.058594 0.018602 245 242 242
0.253906 -0.058594 0.011847 245 246 243
0.257812 -0.058594 -0.000455 178 182 169
0.273438 -0.058594 -0.060698 216 174 157
0.277344 -0.058594 -0.010097 236 194 180
0.281250 -0.058594 0.000389 234 184 167
0.285156 -0.058594 0.000444 226 178 150
0.289062 -0.058594 -0.004495 216 158 132
0.292969 -0.058594 -0.013176 196 124 104
0.296875 -0.058594 -0.022495 202 136 116
0.300781 -0.058594 -0.019928 217 160 144
0.304688 -0.058594 -0.019116 224 178 166
0.308594 -0.058594 -0.017696 228 191 180
0.312500 -0.058594 -0.019544 226 193 185
0.316406 -0.058594 -0.024788 211 182 170
0.320312 -0.058594 -0.033410 204 189 178
0.324219 -0.058594 -0.060133 110 108 108
-0.234375 -0.062500 0.080982 121 106 103
-0.230469 -0.062500 0.089189 198 162 155
-0.226562 -0.062500 0.093738 223 185 177
-0.222656 -0.062500 0.097057 184 126 114
-0.218750 -0.062500 0.096285 156 91 82
-0.214844 -0.062500 0.098847 220 168 151
-0.210938 -0.062500 0.099673 225 177 160
-0.207031 -0.062500 0.095917 159 91 82
-0.203125 -0.062500 0.092648 157 85 78
-0.199219 -0.062500 0.092358 205 136 131
-0.195312 -0.062500 0.093315 221 155 154
-0.191406 -0.062500 0.092273 234 179 179
-0.187500 -0.062500 0.090481 226 170 174
-0.183594 -0.062500 0.088457 235 199 202
-0.179688 -0.062500 0.083300 236 212 214
-0.175781 -0.062500 0.071936 152 117 126
-0.171875 -0.062500 0.067128 159 99 111
-0.167969 -0.062500 0.067886 203 124 141
-0.164062 -0.062500 0.069638 250 227 224
-0.160156 -0.062500 0.070554 254 254 253
-0.156250 -0.062500 0.070321 254 253 253
-0.152344 -0.062500 0.070615 253 246 246
-0.148438 -0.062500 0.072504 248 237 239
-0.144531 -0.062500 0.074236 241 234 237
-0.140625 -0.062500 0.075242 239 234 239
-0.136719 -0.062500 0.076247 238 235 239
-0.132812 -0.062500 0.077294 240 238 242
-0.128906 -0.062500 0.078247 242 240 243
-0.125000 -0.062500 0.079101 241 239 242
-0.121094 -0.062500 0.079838 239 237 241
-0.117188 -0.062500 0.080381 239 236 241
-0.113281 -0.062500 0.080857 239 236 240
-0.109375 -0.062500 0.081212 239 236 240
-0.105469 -0.062500 0.081650 239 237 241
-0.101562 -0.062500 0.082213 239 237 241
-0.097656 -0.062500 0.082686 240 237 241
-0.093750 -0.062500 0.083155 240 237 241
-0.089844 -0.062500 0.083577 240 237 241
-0.085938 -0.062500 0.083947 241 237 241
-0.082031 -0.062500 0.084242 241 237 241
-0.078125 -0.062500 0.084439 241 237 241
-0.074219 -0.062500 0.084533 242 237 241
-0.070312 -0.062500 0.084464 242 238 241
-0.066406 -0.062500 0.084365 242 238 241
-0.062500 -0.062500 0.084127 243 238 241
-0.058594 -0.062500 0.083860 243 238 242
-0.054688 -0.062500 0.083541 243 238 242
-0.050781 -0.062500 0.083128 243 238 242
-0.046875 -0.062500 0.082598 244 239 242
-0.042969 -0.062500 0.081969 244 239 242
-0.039062 -0.062500 0.081204 244 239 242
-0.035156 -0.062500 0.080304 244 239 242
-0.031250 -0.062500 0.079305 244 239 242
-0.027344 -0.062500 0.078107 244 239 242
-0.023438 -0.062500 0.076712 244 239 242
-0.019531 -0.062500 0.075194 244 239 242
-0.015625 -0.062500 0.073571 244 239 242
-0.011719 -0.062500 0.071767 244 239 242
-0.007812 -0.062500 0.069811 244 239 242
-0.003906 -0.062500 0.067725 244 239 242
0.000000 -0.062500 0.065556 243 239 242
0.003906 -0.062500 0.063151 243 239 242
0.007812 -0.062500 0.060380 242 238 241
0.011719 -0.062500 0.057516 241 236 241
0.015625 -0.062500 0.054652 240 235 240
0.019531 -0.062500 0.051701 239 235 240
0.023438 -0.062500 0.048397 239 234 239
0.027344 -0.062500 0.044738 238 232 238
0.031250 -0.062500 0.040875 237 231 237
0.035156 -0.062500 0.037363 235 229 235
0.039062 -0.062500 0.034730 232 227 234
0.042969 -0.062500 0.033106 228 224 231
0.046875 -0.062500 0.033279 225 222 229
0.050781 -0.062500 0.036222 230 228 234
0.054688 -0.062500 0.041475 233 230 236
0.058594 -0.062500 0.047106 230 226 233
0.062500 -0.062500 0.052456 231 227 234
0.066406 -0.062500 0.057344 233 228 235
0.070312 -0.062500 0.061742 231 227 235
0.074219 -0.062500 0.066138 232 227 235
0.078125 -0.062500 0.070560 232 228 236
0.082031 -0.062500 0.074638 234 229 237
0.085938 -0.062500 0.078184 235 231 239
0.089844 -0.062500 0.081450 236 231 239
0.093750 -0.062500 0.084532 236 232 240
0.097656 -0.062500 0.087371 237 233 240
0.101562 -0.062500 0.090055 238 234 241
0.105469 -0.062500 0.092536 239 235 241
0.109375 -0.062500 0.094759 240 236 242
0.113281 -0.062500 0.096693 240 236 242
0.117188 -0.062500 0.098276 241 237 243
0.121094 -0.062500 0.099595 241 237 243
0.125000 -0.062500 0.100728 242 238 243
0.128906 -0.062500 0.101571 242 238 243
0.132812 -0.062500 0.102094 242 238 243
0.136719 -0.062500 0.102373 242 238 243
0.140625 -0.062500 0.102517 243 239 243
0.144531 -0.062500 0.102406 243 239 243
0.148438 -0.062500 0.102074 243 239 243
0.152344 -0.062500 0.101478 243 239 243
0.156250 -0.062500 0.100778 242 239 243
0.160156 -0.062500 0.099812 242 239 243
0.164062 -0.062500 0.098592 242 238 243
0.167969 -0.062500 0.097091 242 238 243
0.171875 -0.062500 0.095485 242 238 243
0.175781 -0.062500 0.093709 242 238 243
0.179688 -0.062500 0.091847 242 238 243
0.183594 -0.062500 0.089873 242 238 243
0.187500 -0.062500 0.087866 241 238 243
0.191406 -0.062500 0.085764 241 238 243
0.195312 -0.062500 0.083450 240 237 243
0.199219 -0.062500 0.081054 240 237 242
0.203125 -0.062500 0.078403 239 237 242
0.207031 -0.062500 0.075602 238 235 242
0.210938 -0.062500 0.072711 237 234 241
0.214844 -0.062500 0.069532 236 233 240
0.218750 -0.062500 0.065963 235 232 239
0.222656 -0.062500 0.061907 234 230 238
0.226562 -0.062500 0.057118 233 227 236
0.230469 -0.062500 0.051703 234 225 234
0.234375 -0.062500 0.045276 234 222 231
0.238281 -0.062500 0.038333 234 219 227
0.242188 -0.062500 0.032300 238 225 230
0.246094 -0.062500 0.025168 242 233 234
0.250000 -0.062500 0.017721 248 246 245
0.253906 -0.062500 0.011438 250 250 248
0.257812 -0.062500 -0.000429 228 231 221
0.273438 -0.062500 -0.026183 219 180 163
0.277344 -0.062500 -0.021927 232 186 168
0.281250 -0.062500 0.003271 236 183 165
0.285156 -0.062500 0.001185 230 181 154
0.289062 -0.062500 -0.003643 212 149 123
0.292969 -0.062500 -0.018326 179 104 88
0.296875 -0.062500 -0.034557 179 108 92
0.300781 -0.062500 -0.022780 199 132 120
0.304688 -0.062500 -0.019307 219 166 155
0.308594 -0.062500 -0.016450 228 189 179
0.312500 -0.062500 -0.017168 227 193 185
0.316406 -0.062500 -0.023874 212 182 170
0.320312 -0.062500 -0.032075 200 182 171
0.324219 -0.062500 -0.057965 102 95 99
-0.234375 -0.066406 0.042918 133 117 116
-0.230469 -0.066406 0.087474 182 140 135
-0.226562 -0.066406 0.094636 222 184 178
-0.222656 -0.066406 0.096731 203 152 142
-0.218750 -0.066406 0.095546 149 84 77
-0.214844 -0.066406 0.097572 208 144 128
-0.210938 -0.066406 0.098929 223 171 153
-0.207031 -0.066406 0.096289 175 107 95
-0.203125 -0.066406 0.092956 163 90 81
-0.199219 -0.066406 0.092190 187 112 106
-0.195312 -0.066406 0.093171 210 138 136
-0.191406 -0.066406 0.092718 232 178 176
-0.187500 -0.066406 0.091211 221 162 166
-0.183594 -0.066406 0.089341 229 184 189
-0.179688 -0.066406 0.085395 235 208 211
-0.175781 -0.066406 0.076357 173 133 144
-0.171875 -0.066406 0.070232 168 105 120
-0.167969 -0.066406 0.069529 198 122 142
-0.164062 -0.066406 0.070783 250 235 232
-0.160156 -0.066406 0.071619 254 254 254
-0.156250 -0.066406 0.071262 254 253 253
-0.152344 -0.066406 0.071382 250 239 238
-0.148438 -0.066406 0.073268 244 232 236
-0.144531 -0.066406 0.075028 241 235 239
-0.140625 -0.066406 0.075940 241 237 241
-0.136719 -0.066406 0.076776 239 237 240
-0.132812 -0.066406 0.077687 239 237 241
-0.128906 -0.066406 0.078574 241 239 243
-0.125000 -0.066406 0.079360 241 238 242
-0.121094 -0.066406 0.080009 239 237 241
-0.117188 -0.066406 0.080493 239 236 241
-0.113281 -0.066406 0.080925 239 236 241
-0.109375 -0.066406 0.081243 239 237 240
-0.105469 -0.066406 0.081648 240 237 241
-0.101562 -0.066406 0.082167 240 237 241
-0.097656 -0.066406 0.082598 240 237 241
-0.093750 -0.066406 0.083022 240 237 241
-0.089844 -0.066406 0.083398 241 237 241
-0.085938 -0.066406 0.083736 241 237 241
-0.082031 -0.066406 0.083994 241 237 241
-0.078125 -0.066406 0.084153 242 237 241
-0.074219 -0.066406 0.084217 242 238 241
-0.070312 -0.066406 0.084125 242 238 241
-0.066406 -0.066406 0.083991 243 238 242
-0.062500 -0.066406 0.083707 243 238 242
-0.058594 -0.066406 0.083401 243 238 242
-0.054688 -0.066406 0.083041 243 239 242
-0.050781 -0.066406 0.082594 244 239 242
-0.046875 -0.066406 0.082043 244 239 242
-0.042969 -0.066406 0.081395 244 239 242
-0.039062 -0.066406 0.080628 244 239 242
-0.035156 -0.066406 0.079732 244 239 242
-0.031250 -0.066406 0.078734 244 239 242
-0.027344 -0.066406 0.077530 244 239 242
-0.023438 -0.066406 0.076114 244 239 242
-0.019531 -0.066406 0.074538 244 239 242
-0.015625 -0.066406 0.072825 244 239 242
-0.011719 -0.066406 0.070887 243 239 242
-0.007812 -0.066406 0.068736 243 239 242
-0.003906 -0.066406 0.066418 243 239 242
0.000000 -0.066406 0.063994 243 239 242
0.003906 -0.066406 0.061319 242 238 242
0.007812 -0.066406 0.058263 241 237 241
0.011719 -0.066406 0.055087 240 236 240
0.015625 -0.066406 0.051873 239 234 240
0.019531 -0.066406 0.048563 239 234 239
0.023438 -0.066406 0.044915 238 233 238
0.027344 -0.066406 0.040957 237 232 237
0.031250 -0.066406 0.036891 236 231 236
0.035156 -0.066406 0.033304 234 229 235
0.039062 -0.066406 0.030934 233 228 234
0.042969 -0.066406 0.030128 232 228 234
0.046875 -0.066406 0.031205 232 229 234
0.050781 -0.066406 0.034604 234 231 236
0.054688 -0.066406 0.039975 234 231 236
0.058594 -0.066406 0.045679 230 226 233
0.062500 -0.066406 0.051183 230 226 234
0.066406 -0.066406 0.056244 232 228 235
0.070312 -0.066406 0.060933 231 227 235
0.074219 -0.066406 0.065641 232 227 235
0.078125 -0.066406 0.070258 233 228 237
0.082031 -0.066406 0.074458 234 230 238
0.085938 -0.066406 0.078054 236 231 239
0.089844 -0.066406 0.081366 236 232 239
0.093750 -0.066406 0.084502 237 233 240
0.097656 -0.066406 0.087384 237 233 240
0.101562 -0.066406 0.090094 238 234 241
0.105469 -0.066406 0.092574 239 235 241
0.109375 -0.066406 0.094795 240 236 242
0.113281 -0.066406 0.096702 240 236 242
0.117188 -0.066406 0.098241 241 237 243
0.121094 -0.066406 0.099509 241 237 243
0.125000 -0.066406 0.100602 242 238 243
0.128906 -0.066406 0.101398 242 238 243
0.132812 -0.066406 0.101873 242 238 243
0.136719 -0.066406 0.102114 242 238 243
0.140625 -0.066406 0.102229 243 239 243
0.144531 -0.066406 0.102098 243 239 243
0.148438 -0.066406 0.101736 243 239 243
0.152344 -0.066406 0.101124 243 239 243
0.156250 -0.066406 0.100404 242 238 243
0.160156 -0.066406 0.099422 242 238 243
0.164062 -0.066406 0.098175 242 238 243
0.167969 -0.066406 0.096645 242 238 243
0.171875 -0.066406 0.095009 242 238 243
0.175781 -0.066406 0.093211 242 238 243
0.179688 -0.066406 0.091329 241 238 243
0.183594 -0.066406 0.089332 241 238 243
0.187500 -0.066406 0.087294 241 238 243
0.191406 -0.066406 0.085164 241 238 243
0.195312 -0.066406 0.082839 240 238 242
0.199219 -0.066406 0.080433 240 237 242
0.203125 -0.066406 0.077776 239 236 242
0.207031 -0.066406 0.074963 238 235 241
0.210938 -0.066406 0.072069 237 234 240
0.214844 -0.066406 0.068877 236 233 239
0.218750 -0.066406 0.065267 236 231 238
0.222656 -0.066406 0.061181 235 230 237
0.226562 -0.066406 0.056386 235 228 236
0.230469 -0.066406 0.050940 234 225 233
0.234375 -0.066406 0.044400 234 221 229
0.238281 -0.066406 0.037651 235 221 228
0.242188 -0.066406 0.031416 240 228 232
0.246094 -0.066406 0.023511 245 238 237
0.250000 -0.066406 0.016446 250 246 244
0.253906 -0.066406 0.009007 246 245 240
0.277344 -0.066406 -0.041395 231 184 162
0.281250 -0.066406 0.004109 236 179 159
0.285156 -0.066406 0.001111 233 178 152
0.289062 -0.066406 -0.001551 211 139 117
0.292969 -0.066406 -0.033342 176 99 86
0.296875 -0.066406 -0.047847 171 100 87
0.300781 -0.066406 -0.029598 194 124 113
0.304688 -0.066406 -0.018614 219 164 152
0.308594 -0.066406 -0.015388 228 189 176
0.312500 -0.066406 -0.015595 227 191 183
0.316406 -0.066406 -0.022336 211 182 170
0.320312 -0.066406 -0.031989 193 175 166
0.324219 -0.066406 -0.060427 91 85 91
-0.230469 -0.070312 0.081685 125 85 83
-0.226562 -0.070312 0.093446 211 175 165
-0.222656 -0.070312 0.094242 209 168 155
-0.218750 -0.070312 0.093992 142 80 72
-0.214844 -0.070312 0.095392 186 109 97
-0.210938 -0.070312 0.097254 219 158 143
-0.207031 -0.070312 0.096482 198 133 120
-0.203125 -0.070312 0.093780 165 95 85
-0.199219 -0.070312 0.091959 157 83 78
-0.195312 -0.070312 0.092133 195 119 115
-0.191406 -0.070312 0.092403 229 176 171
-0.187500 -0.070312 0.091708 220 162 163
-0.183594 -0.070312 0.090251 221 166 172
-0.179688 -0.070312 0.087349 232 196 201
-0.175781 -0.070312 0.081178 201 159 169
-0.171875 -0.070312 0.074047 174 111 128
-0.167969 -0.070312 0.071579 177 109 132
-0.164062 -0.070312 0.071751 249 236 234
-0.160156 -0.070312 0.072165 254 254 253
-0.156250 -0.070312 0.072059 254 253 252
-0.152344 -0.070312 0.072396 249 240 239
-0.148438 -0.070312 0.074083 244 237 238
-0.144531 -0.070312 0.075638 240 237 240
-0.140625 -0.070312 0.076540 242 239 241
-0.136719 -0.070312 0.077324 241 239 242
-0.132812 -0.070312 0.078083 240 238 242
-0.128906 -0.070312 0.078838 242 239 243
-0.125000 -0.070312 0.079525 241 238 242
-0.121094 -0.070312 0.080093 240 237 241
-0.117188 -0.070312 0.080529 239 237 241
-0.113281 -0.070312 0.080918 239 237 241
-0.109375 -0.070312 0.081203 239 237 241
-0.105469 -0.070312 0.081575 240 237 241
-0.101562 -0.070312 0.082045 240 237 241
-0.097656 -0.070312 0.082430 240 237 241
-0.093750 -0.070312 0.082805 241 237 241
-0.089844 -0.070312 0.083124 241 237 241
-0.085938 -0.070312 0.083425 241 237 241
-0.082031 -0.070312 0.083645 242 238 241
-0.078125 -0.070312 0.083760 242 238 241
-0.074219 -0.070312 0.083787 242 238 242
-0.070312 -0.070312 0.083667 243 238 242
-0.066406 -0.070312 0.083509 243 238 242
-0.062500 -0.070312 0.083203 243 239 242
-0.058594 -0.070312 0.082864 243 239 242
-0.054688 -0.070312 0.082460 244 239 242
-0.050781 -0.070312 0.081973 244 239 242
-0.046875 -0.070312 0.081397 244 239 242
-0.042969 -0.070312 0.080731 244 239 242
-0.039062 -0.070312 0.079956 244 239 242
-0.035156 -0.070312 0.079062 245 239 242
-0.031250 -0.070312 0.078069 245 240 243
-0.027344 -0.070312 0.076866 245 240 243
-0.023438 -0.070312 0.075408 245 240 243
-0.019531 -0.070312 0.073749 244 240 243
-0.015625 -0.070312 0.071953 244 239 242
-0.011719 -0.070312 0.069872 243 238 242
-0.007812 -0.070312 0.067534 243 238 242
-0.003906 -0.070312 0.064986 242 237 242
0.000000 -0.070312 0.062312 241 237 241
0.003906 -0.070312 0.059378 240 236 241
0.007812 -0.070312 0.056076 239 235 240
0.011719 -0.070312 0.052628 239 234 240
0.015625 -0.070312 0.049033 238 233 239
0.019531 -0.070312 0.045326 238 233 238
0.023438 -0.070312 0.041305 237 232 237
0.027344 -0.070312 0.037011 236 232 236
0.031250 -0.070312 0.032784 235 231 235
0.035156 -0.070312 0.029031 234 229 234
0.039062 -0.070312 0.026727 234 230 234
0.042969 -0.070312 0.026673 235 231 236
0.046875 -0.070312 0.028195 235 232 236
0.050781 -0.070312 0.032284 235 231 236
0.054688 -0.070312 0.038075 233 229 236
0.058594 -0.070312 0.044030 230 226 234
0.062500 -0.070312 0.049754 230 226 234
0.066406 -0.070312 0.055015 232 227 235
0.070312 -0.070312 0.060013 231 227 235
0.074219 -0.070312 0.065055 232 228 236
0.078125 -0.070312 0.069863 234 230 237
0.082031 -0.070312 0.074201 235 231 238
0.085938 -0.070312 0.077858 236 232 239
0.089844 -0.070312 0.081217 237 233 240
0.093750 -0.070312 0.084410 237 233 240
0.097656 -0.070312 0.087327 238 234 241
0.101562 -0.070312 0.090061 238 234 241
0.105469 -0.070312 0.092548 239 235 241
0.109375 -0.070312 0.094782 240 236 242
0.113281 -0.070312 0.096674 240 236 242
0.117188 -0.070312 0.098173 241 237 243
0.121094 -0.070312 0.099395 241 237 243
0.125000 -0.070312 0.100452 241 237 243
0.128906 -0.070312 0.101201 242 237 243
0.132812 -0.070312 0.101629 242 237 243
0.136719 -0.070312 0.101828 242 238 243
0.140625 -0.070312 0.101909 242 238 243
0.144531 -0.070312 0.101749 243 239 243
0.148438 -0.070312 0.101347 243 239 243
0.152344 -0.070312 0.100707 243 239 243
0.156250 -0.070312 0.099962 242 238 243
0.160156 -0.070312 0.098962 242 238 243
0.164062 -0.070312 0.097692 242 238 243
0.167969 -0.070312 0.096146 242 238 243
0.171875 -0.070312 0.094496 242 238 243
0.175781 -0.070312 0.092684 242 238 243
0.179688 -0.070312 0.090800 241 238 242
0.183594 -0.070312 0.088792 241 238 242
0.187500 -0.070312 0.086730 241 238 242
0.191406 -0.070312 0.084572 241 238 242
0.195312 -0.070312 0.082226 240 237 242
0.199219 -0.070312 0.079796 240 236 241
0.203125 -0.070312 0.077109 239 236 241
0.207031 -0.070312 0.074256 239 235 241
0.210938 -0.070312 0.071312 238 234 240
0.214844 -0.070312 0.068056 236 231 238
0.218750 -0.070312 0.064344 235 230 237
0.222656 -0.070312 0.060184 235 229 236
0.226562 -0.070312 0.055436 236 229 236
0.230469 -0.070312 0.050084 234 225 233
0.234375 -0.070312 0.043568 233 222 229
0.238281 -0.070312 0.036650 238 225 231
0.242188 -0.070312 0.030434 243 233 235
0.246094 -0.070312 0.023169 247 241 240
0.250000 -0.070312 0.014347 248 243 239
0.253906 -0.070312 0.004385 226 219 205
0.277344 -0.070312 -0.043379 231 179 157
0.281250 -0.070312 -0.003813 238 175 155
0.285156 -0.070312 -0.001473 232 169 143
0.289062 -0.070312 -0.004686 209 130 112
0.292969 -0.070312 -0.053887 185 105 94
0.296875 -0.070312 -0.052806 182 111 97
0.300781 -0.070312 -0.039717 200 132 119
0.304688 -0.070312 -0.017845 218 163 148
0.308594 -0.070312 -0.015020 226 183 168
0.312500 -0.070312 -0.015020 224 187 178
0.316406 -0.070312 -0.020155 210 181 170
0.320312 -0.070312 -0.033452 190 171 165
-0.230469 -0.074219 0.008368 77 50 48
-0.226562 -0.074219 0.086265 196 160 147
-0.222656 -0.074219 0.093355 222 192 177
-0.218750 -0.074219 0.093202 168 104 95
-0.214844 -0.074219 0.093680 161 84 78
-0.210938 -0.074219 0.095577 206 133 122
-0.207031 -0.074219 0.096831 221 164 150
-0.203125 -0.074219 0.095484 194 127 117
-0.199219 -0.074219 0.092490 144 75 71
-0.195312 -0.074219 0.091144 176 99 92
-0.191406 -0.074219 0.091864 223 164 156
-0.187500 -0.074219 0.091947 224 168 164
-0.183594 -0.074219 0.090742 222 164 166
-0.179688 -0.074219 0.088719 231 192 194
-0.175781 -0.074219 0.085564 228 194 197
-0.171875 -0.074219 0.079549 199 142 160
-0.167969 -0.074219 0.074851 181 126 157
-0.164062 -0.074219 0.073046 245 231 235
-0.160156 -0.074219 0.072263 253 251 250
-0.156250 -0.074219 0.072450 252 246 246
-0.152344 -0.074219 0.073372 246 237 238
-0.148438 -0.074219 0.074982 243 238 240
-0.144531 -0.074219 0.076293 241 238 241
-0.140625 -0.074219 0.077167 242 240 242
-0.136719 -0.074219 0.077893 243 240 243
-0.132812 -0.074219 0.078483 241 239 242
-0.128906 -0.074219 0.079086 241 238 242
-0.125000 -0.074219 0.079663 241 238 242
-0.121094 -0.074219 0.080138 240 237 241
-0.117188 -0.074219 0.080520 239 236 241
-0.113281 -0.074219 0.080865 240 237 241
-0.109375 -0.074219 0.081114 240 237 241
-0.105469 -0.074219 0.081444 240 237 241
-0.101562 -0.074219 0.081855 240 237 241
-0.097656 -0.074219 0.082185 240 237 241
-0.093750 -0.074219 0.082505 241 237 241
-0.089844 -0.074219 0.082766 241 237 241
-0.085938 -0.074219 0.083014 241 237 241
-0.082031 -0.074219 0.083200 242 238 241
-0.078125 -0.074219 0.083274 242 238 241
-0.074219 -0.074219 0.083267 242 238 242
-0.070312 -0.074219 0.083120 243 238 242
-0.066406 -0.074219 0.082938 243 239 242
-0.062500 -0.074219 0.082616 243 239 242
-0.058594 -0.074219 0.082259 243 239 242
-0.054688 -0.074219 0.081837 244 239 242
-0.050781 -0.074219 0.081334 244 239 242
-0.046875 -0.074219 0.080747 244 239 242
-0.042969 -0.074219 0.080069 244 239 242
-0.039062 -0.074219 0.079277 244 239 242
-0.035156 -0.074219 0.078365 245 240 242
-0.031250 -0.074219 0.077342 245 240 243
-0.027344 -0.074219 0.076090 245 240 243
-0.023438 -0.074219 0.074537 245 240 243
-0.019531 -0.074219 0.072772 244 240 243
-0.015625 -0.074219 0.070851 244 239 242
-0.011719 -0.074219 0.068614 243 238 242
-0.007812 -0.074219 0.066102 242 237 242
-0.003906 -0.074219 0.063334 241 236 241
0.000000 -0.074219 0.060430 240 235 241
0.003906 -0.074219 0.057249 239 235 241
0.007812 -0.074219 0.053724 239 234 240
0.011719 -0.074219 0.050042 238 233 239
0.015625 -0.074219 0.046108 237 232 239
0.019531 -0.074219 0.042083 236 231 237
0.023438 -0.074219 0.037745 235 230 236
0.027344 -0.074219 0.033094 234 229 234
0.031250 -0.074219 0.028687 233 228 233
0.035156 -0.074219 0.024830 233 227 232
0.039062 -0.074219 0.022869 233 228 233
0.042969 -0.074219 0.023172 235 231 235
0.046875 -0.074219 0.025051 236 232 236
0.050781 -0.074219 0.029845 234 230 235
0.054688 -0.074219 0.036260 232 228 235
0.058594 -0.074219 0.042566 230 226 234
0.062500 -0.074219 0.048548 230 226 234
0.066406 -0.074219 0.053996 231 227 235
0.070312 -0.074219 0.059199 231 227 236
0.074219 -0.074219 0.064451 233 228 237
0.078125 -0.074219 0.069393 234 230 238
0.082031 -0.074219 0.073838 235 231 239
0.085938 -0.074219 0.077553 237 233 240
0.089844 -0.074219 0.080945 237 233 240
0.093750 -0.074219 0.084189 238 234 241
0.097656 -0.074219 0.087133 238 234 241
0.101562 -0.074219 0.089876 238 234 241
0.105469 -0.074219 0.092364 239 235 241
0.109375 -0.074219 0.094595 240 236 242
0.113281 -0.074219 0.096469 241 237 242
0.117188 -0.074219 0.097926 241 237 243
0.121094 -0.074219 0.099111 242 238 243
0.125000 -0.074219 0.100146 242 238 243
0.128906 -0.074219 0.100869 242 238 243
0.132812 -0.074219 0.101263 242 238 243
0.136719 -0.074219 0.101435 242 238 243
0.140625 -0.074219 0.101495 243 238 243
0.144531 -0.074219 0.101309 243 239 243
0.148438 -0.074219 0.100874 243 239 243
0.152344 -0.074219 0.100213 243 239 243
0.156250 -0.074219 0.099445 243 239 243
0.160156 -0.074219 0.098427 243 239 243
0.164062 -0.074219 0.097139 243 239 243
0.167969 -0.074219 0.095580 242 239 243
0.171875 -0.074219 0.093904 242 239 243
0.175781 -0.074219 0.092063 242 238 243
0.179688 -0.074219 0.090160 241 238 242
0.183594 -0.074219 0.088129 240 238 242
0.187500 -0.074219 0.086033 240 238 242
0.191406 -0.074219 0.083840 240 238 242
0.195312 -0.074219 0.081474 240 237 242
0.199219 -0.074219 0.079017 240 236 241
0.203125 -0.074219 0.076299 239 235 241
0.207031 -0.074219 0.073400 239 234 240
0.210938 -0.074219 0.070402 238 233 239
0.214844 -0.074219 0.067065 236 231 238
0.218750 -0.074219 0.063214 235 229 236
0.222656 -0.074219 0.058952 235 229 236
0.226562 -0.074219 0.054147 236 229 235
0.230469 -0.074219 0.048792 234 225 233
0.234375 -0.074219 0.042607 234 223 230
0.238281 -0.074219 0.035677 238 227 232
0.242188 -0.074219 0.028974 242 234 237
0.246094 -0.074219 0.022956 245 238 238
0.250000 -0.074219 0.011840 238 226 225
0.281250 -0.074219 -0.022269 237 169 151
0.285156 -0.074219 -0.011982 229 159 135
0.289062 -0.074219 -0.030187 206 124 108
0.292969 -0.074219 -0.063770 189 109 98
0.296875 -0.074219 -0.059004 188 116 102
0.300781 -0.074219 -0.050363 198 129 117
0.304688 -0.074219 -0.018621 211 150 134
0.308594 -0.074219 -0.014972 222 175 158
0.312500 -0.074219 -0.014682 225 188 179
0.316406 -0.074219 -0.019291 212 184 173
0.320312 -0.074219 -0.035994 177 158 154
-0.226562 -0.078125 0.062065 125 88 87
-0.222656 -0.078125 0.089381 226 196 185
-0.218750 -0.078125 0.092576 208 151 140
-0.214844 -0.078125 0.093247 160 89 86
-0.210938 -0.078125 0.094173 174 96 93
-0.207031 -0.078125 0.096376 223 162 152
-0.203125 -0.078125 0.097155 223 168 157
-0.199219 -0.078125 0.094348 165 96 90
-0.195312 -0.078125 0.091156 154 81 74
-0.191406 -0.078125 0.090849 207 135 125
-0.187500 -0.078125 0.091216 224 168 159
-0.183594 -0.078125 0.090820 224 170 166
-0.179688 -0.078125 0.089761 228 184 182
-0.175781 -0.078125 0.088156 233 200 200
-0.171875 -0.078125 0.084536 220 180 191
-0.167969 -0.078125 0.078845 235 215 224
-0.164062 -0.078125 0.075119 251 248 248
-0.160156 -0.078125 0.073130 250 245 246
-0.156250 -0.078125 0.073243 243 234 238
-0.152344 -0.078125 0.074313 244 238 240
-0.148438 -0.078125 0.075865 242 239 241
-0.144531 -0.078125 0.077030 241 239 241
-0.140625 -0.078125 0.077776 242 240 242
-0.136719 -0.078125 0.078362 241 239 242
-0.132812 -0.078125 0.078806 241 237 241
-0.128906 -0.078125 0.079268 240 237 241
-0.125000 -0.078125 0.079721 240 237 241
-0.121094 -0.078125 0.080106 240 237 241
-0.117188 -0.078125 0.080434 240 237 241
-0.113281 -0.078125 0.080739 240 237 241
-0.109375 -0.078125 0.080959 240 237 241
-0.105469 -0.078125 0.081249 240 237 241
-0.101562 -0.078125 0.081606 240 237 241
-0.097656 -0.078125 0.081883 241 237 241
-0.093750 -0.078125 0.082151 241 237 241
-0.089844 -0.078125 0.082357 241 237 241
-0.085938 -0.078125 0.082555 241 237 241
-0.082031 -0.078125 0.082684 242 237 241
-0.078125 -0.078125 0.082713 242 238 241
-0.074219 -0.078125 0.082675 242 238 242
-0.070312 -0.078125 0.082502 243 238 242
-0.066406 -0.078125 0.082293 243 238 242
-0.062500 -0.078125 0.081952 243 239 242
-0.058594 -0.078125 0.081574 243 239 242
-0.054688 -0.078125 0.081128 244 239 242
-0.050781 -0.078125 0.080601 244 239 242
-0.046875 -0.078125 0.079996 244 239 242
-0.042969 -0.078125 0.079296 244 239 242
-0.039062 -0.078125 0.078463 244 239 242
-0.035156 -0.078125 0.077507 245 240 242
-0.031250 -0.078125 0.076420 245 240 243
-0.027344 -0.078125 0.075072 245 240 243
-0.023438 -0.078125 0.073390 244 240 242
-0.019531 -0.078125 0.071494 244 239 242
-0.015625 -0.078125 0.069402 243 238 242
-0.011719 -0.078125 0.066983 242 237 241
-0.007812 -0.078125 0.064287 241 236 241
-0.003906 -0.078125 0.061315 240 235 241
0.000000 -0.078125 0.058222 239 234 240
0.003906 -0.078125 0.054856 239 234 240
0.007812 -0.078125 0.051161 238 233 239
0.011719 -0.078125 0.047263 238 232 239
0.015625 -0.078125 0.043007 237 231 237
0.019531 -0.078125 0.038699 235 230 236
0.023438 -0.078125 0.034180 234 229 234
0.027344 -0.078125 0.029188 234 228 233
0.031250 -0.078125 0.024460 233 228 233
0.035156 -0.078125 0.020613 234 229 233
0.039062 -0.078125 0.018947 234 229 233
0.042969 -0.078125 0.019018 236 231 235
0.046875 -0.078125 0.021927 237 232 236
0.050781 -0.078125 0.027528 235 231 236
0.054688 -0.078125 0.034640 233 228 234
0.058594 -0.078125 0.041234 230 226 233
0.062500 -0.078125 0.047427 230 226 234
0.066406 -0.078125 0.053110 231 227 235
0.070312 -0.078125 0.058447 231 227 235
0.074219 -0.078125 0.063856 232 228 236
0.078125 -0.078125 0.068893 234 230 237
0.082031 -0.078125 0.073420 235 231 239
0.085938 -0.078125 0.077188 237 233 240
0.089844 -0.078125 0.080617 237 233 240
0.093750 -0.078125 0.083914 238 234 241
0.097656 -0.078125 0.086888 238 234 241
0.101562 -0.078125 0.089641 238 235 241
0.105469 -0.078125 0.092126 239 235 242
0.109375 -0.078125 0.094364 240 236 242
0.113281 -0.078125 0.096233 241 237 243
0.117188 -0.078125 0.097667 241 238 243
0.121094 -0.078125 0.098831 242 238 243
0.125000 -0.078125 0.099858 242 238 243
0.128906 -0.078125 0.100561 242 238 243
0.132812 -0.078125 0.100923 242 238 243
0.136719 -0.078125 0.101062 242 238 243
0.140625 -0.078125 0.101093 243 239 243
0.144531 -0.078125 0.100876 243 239 243
0.148438 -0.078125 0.100397 243 239 243
0.152344 -0.078125 0.099702 243 239 243
0.156250 -0.078125 0.098900 243 239 243
0.160156 -0.078125 0.097851 243 239 243
0.164062 -0.078125 0.096533 243 239 243
0.167969 -0.078125 0.094952 243 239 243
0.171875 -0.078125 0.093242 243 239 243
0.175781 -0.078125 0.091368 242 239 243
0.179688 -0.078125 0.089448 241 238 242
0.183594 -0.078125 0.087392 240 238 242
0.187500 -0.078125 0.085265 240 238 242
0.191406 -0.078125 0.083035 240 238 242
0.195312 -0.078125 0.080645 240 237 241
0.199219 -0.078125 0.078145 239 236 241
0.203125 -0.078125 0.075372 239 235 240
0.207031 -0.078125 0.072396 238 234 239
0.210938 -0.078125 0.069302 238 233 238
0.214844 -0.078125 0.065856 237 231 237
0.218750 -0.078125 0.061813 235 229 236
0.222656 -0.078125 0.057387 235 229 235
0.226562 -0.078125 0.052529 235 228 235
0.230469 -0.078125 0.047210 234 226 233
0.234375 -0.078125 0.041305 236 227 234
0.238281 -0.078125 0.034803 237 228 233
0.242188 -0.078125 0.027747 242 236 238
0.246094 -0.078125 0.021688 240 234 236
0.250000 -0.078125 0.009205 180 159 169
0.281250 -0.078125 -0.045955 233 165 147
0.285156 -0.078125 -0.044895 226 155 134
0.289062 -0.078125 -0.067461 199 116 103
0.292969 -0.078125 -0.069462 183 101 93
0.296875 -0.078125 -0.067300 191 117 103
0.300781 -0.078125 -0.057544 197 126 112
0.304688 -0.078125 -0.019628 203 138 122
0.308594 -0.078125 -0.014526 221 171 155
0.312500 -0.078125 -0.014175 228 191 184
0.316406 -0.078125 -0.019984 210 181 171
0.320312 -0.078125 -0.039811 139 122 120
-0.226562 -0.082031 0.038419 62 41 50
-0.222656 -0.082031 0.085215 206 165 160
-0.218750 -0.082031 0.091090 209 157 148
-0.214844 -0.082031 0.092008 173 108 105
-0.210938 -0.082031 0.092325 144 75 78
-0.207031 -0.082031 0.094934 203 129 124
-0.203125 -0.082031 0.097303 232 185 174
-0.199219 -0.082031 0.095742 212 150 137
-0.195312 -0.082031 0.092005 169 92 84
-0.191406 -0.082031 0.089996 180 99 90
-0.187500 -0.082031 0.089688 216 149 133
-0.183594 -0.082031 0.090200 226 173 161
-0.179688 -0.082031 0.090320 223 173 168
-0.175781 -0.082031 0.089541 225 184 185
-0.171875 -0.082031 0.087832 225 195 202
-0.167969 -0.082031 0.082530 249 243 244
-0.164062 -0.082031 0.077284 253 252 252
-0.160156 -0.082031 0.074648 249 246 246
-0.156250 -0.082031 0.074633 240 236 238
-0.152344 -0.082031 0.075464 243 239 242
-0.148438 -0.082031 0.076824 239 236 240
-0.144531 -0.082031 0.077795 239 237 240
-0.140625 -0.082031 0.078389 240 237 241
-0.136719 -0.082031 0.078841 240 236 240
-0.132812 -0.082031 0.079135 240 236 240
-0.128906 -0.082031 0.079425 239 236 240
-0.125000 -0.082031 0.079748 240 237 241
-0.121094 -0.082031 0.080058 240 237 241
-0.117188 -0.082031 0.080339 240 237 241
-0.113281 -0.082031 0.080595 240 237 241
-0.109375 -0.082031 0.080781 240 237 241
-0.105469 -0.082031 0.081023 240 237 241
-0.101562 -0.082031 0.081317 240 237 241
-0.097656 -0.082031 0.081536 241 237 241
-0.093750 -0.082031 0.081746 241 237 241
-0.089844 -0.082031 0.081897 241 237 241
-0.085938 -0.082031 0.082046 241 237 241
-0.082031 -0.082031 0.082121 242 237 241
-0.078125 -0.082031 0.082091 242 238 242
-0.074219 -0.082031 0.081999 242 238 242
-0.070312 -0.082031 0.081793 243 238 242
-0.066406 -0.082031 0.081563 243 239 242
-0.062500 -0.082031 0.081210 243 239 242
-0.058594 -0.082031 0.080814 243 239 242
-0.054688 -0.082031 0.080343 244 239 242
-0.050781 -0.082031 0.079795 244 239 242
-0.046875 -0.082031 0.079169 244 239 242
-0.042969 -0.082031 0.078435 244 239 242
-0.039062 -0.082031 0.077539 245 240 242
-0.035156 -0.082031 0.076499 245 240 243
-0.031250 -0.082031 0.075313 245 240 243
-0.027344 -0.082031 0.073871 244 240 242
-0.023438 -0.082031 0.072048 244 239 242
-0.019531 -0.082031 0.069978 243 238 242
-0.015625 -0.082031 0.067671 242 237 241
-0.011719 -0.082031 0.065020 242 236 241
-0.007812 -0.082031 0.062116 241 236 241
-0.003906 -0.082031 0.058904 241 236 241
0.000000 -0.082031 0.055606 240 235 241
0.003906 -0.082031 0.052069 240 235 240
0.007812 -0.082031 0.048199 240 234 240
0.011719 -0.082031 0.044170 239 233 239
0.015625 -0.082031 0.039693 238 232 237
0.019531 -0.082031 0.035102 236 231 236
0.023438 -0.082031 0.030311 236 230 235
0.027344 -0.082031 0.025007 236 230 234
0.031250 -0.082031 0.020416 236 231 235
0.035156 -0.082031 0.016963 237 232 235
0.039062 -0.082031 0.014308 237 232 235
0.042969 -0.082031 0.014674 237 232 235
0.046875 -0.082031 0.019005 237 233 236
0.050781 -0.082031 0.025449 235 231 235
0.054688 -0.082031 0.033118 232 228 233
0.058594 -0.082031 0.039961 229 225 232
0.062500 -0.082031 0.046358 229 225 233
0.066406 -0.082031 0.052297 231 227 235
0.070312 -0.082031 0.057781 231 227 235
0.074219 -0.082031 0.063349 232 228 236
0.078125 -0.082031 0.068480 234 230 237
0.082031 -0.082031 0.073077 235 231 239
0.085938 -0.082031 0.076902 237 233 240
0.089844 -0.082031 0.080372 237 234 240
0.093750 -0.082031 0.083724 238 234 241
0.097656 -0.082031 0.086727 238 234 241
0.101562 -0.082031 0.089487 239 235 241
0.105469 -0.082031 0.091967 239 235 242
0.109375 -0.082031 0.094204 240 236 242
0.113281 -0.082031 0.096065 241 237 242
0.117188 -0.082031 0.097470 242 238 243
0.121094 -0.082031 0.098606 242 238 243
0.125000 -0.082031 0.099613 242 238 243
0.128906 -0.082031 0.100288 242 238 243
0.132812 -0.082031 0.100609 242 238 243
0.136719 -0.082031 0.100705 242 238 243
0.140625 -0.082031 0.100693 243 239 243
0.144531 -0.082031 0.100431 243 239 243
0.148438 -0.082031 0.099900 243 239 243
0.152344 -0.082031 0.099161 243 239 243
0.156250 -0.082031 0.098311 243 239 243
0.160156 -0.082031 0.097222 243 239 243
0.164062 -0.082031 0.095870 243 239 243
0.167969 -0.082031 0.094267 243 239 243
0.171875 -0.082031 0.092525 243 239 243
0.175781 -0.082031 0.090624 242 239 243
0.179688 -0.082031 0.088690 241 238 242
0.183594 -0.082031 0.086614 240 238 242
0.187500 -0.082031 0.084457 240 238 242
0.191406 -0.082031 0.082191 240 237 242
0.195312 -0.082031 0.079768 240 237 241
0.199219 -0.082031 0.077208 239 236 241
0.203125 -0.082031 0.074361 239 235 240
0.207031 -0.082031 0.071280 238 233 239
0.210938 -0.082031 0.068063 237 232 238
0.214844 -0.082031 0.064470 236 230 236
0.218750 -0.082031 0.060205 234 228 235
0.222656 -0.082031 0.055561 233 226 234
0.226562 -0.082031 0.050637 233 226 233
0.230469 -0.082031 0.045461 235 228 234
0.234375 -0.082031 0.039583 238 233 237
0.238281 -0.082031 0.033208 238 231 235
0.242188 -0.082031 0.026236 243 237 238
0.246094 -0.082031 0.019144 220 209 214
0.281250 -0.082031 -0.052410 229 163 148
0.285156 -0.082031 -0.066833 224 157 140
0.289062 -0.082031 -0.075126 192 111 102
0.292969 -0.082031 -0.075470 164 82 78
0.296875 -0.082031 -0.071701 173 94 83
0.300781 -0.082031 -0.061302 187 110 97
0.304688 -0.082031 -0.019555 198 128 114
0.308594 -0.082031 -0.013705 220 167 154
0.312500 -0.082031 -0.013100 228 189 183
0.316406 -0.082031 -0.020173 211 183 174
0.320312 -0.082031 -0.045007 147 132 130
-0.226562 -0.085938 0.037255 52 34 47
-0.222656 -0.085938 0.081575 171 128 125
-0.218750 -0.085938 0.089445 191 145 137
-0.214844 -0.085938 0.090810 194 141 134
-0.210938 -0.085938 0.091113 155 90 88
-0.207031 -0.085938 0.093295 166 91 91
-0.203125 -0.085938 0.095630 216 150 143
-0.199219 -0.085938 0.095655 227 170 156
-0.195312 -0.085938 0.093324 204 128 112
-0.191406 -0.085938 0.090589 162 82 73
-0.187500 -0.085938 0.088743 191 109 94
-0.183594 -0.085938 0.088999 226 166 149
-0.179688 -0.085938 0.089964 227 177 167
-0.175781 -0.085938 0.089929 223 177 177
-0.171875 -0.085938 0.088995 224 190 197
-0.167969 -0.085938 0.083977 245 235 237
-0.164062 -0.085938 0.078314 251 247 247
-0.160156 -0.085938 0.075886 244 239 240
-0.156250 -0.085938 0.075991 240 236 238
-0.152344 -0.085938 0.076611 240 238 241
-0.148438 -0.085938 0.077728 237 235 239
-0.144531 -0.085938 0.078515 240 238 241
-0.140625 -0.085938 0.078953 241 238 241
-0.136719 -0.085938 0.079238 240 237 241
-0.132812 -0.085938 0.079384 240 237 241
-0.128906 -0.085938 0.079544 239 236 240
-0.125000 -0.085938 0.079752 240 237 241
-0.121094 -0.085938 0.079987 240 237 241
-0.117188 -0.085938 0.080215 240 237 241
-0.113281 -0.085938 0.080420 240 237 241
-0.109375 -0.085938 0.080566 240 237 241
-0.105469 -0.085938 0.080756 240 237 241
-0.101562 -0.085938 0.080984 240 237 241
-0.097656 -0.085938 0.081141 241 237 241
-0.093750 -0.085938 0.081287 241 237 241
-0.089844 -0.085938 0.081374 241 237 241
-0.085938 -0.085938 0.081462 241 237 241
-0.082031 -0.085938 0.081479 242 237 241
-0.078125 -0.085938 0.081391 242 238 242
-0.074219 -0.085938 0.081242 242 238 242
-0.070312 -0.085938 0.080987 243 238 242
-0.066406 -0.085938 0.080712 243 238 242
-0.062500 -0.085938 0.080334 243 239 242
-0.058594 -0.085938 0.079916 243 239 242
-0.054688 -0.085938 0.079409 244 239 242
-0.050781 -0.085938 0.078826 244 239 242
-0.046875 -0.085938 0.078171 244 239 242
-0.042969 -0.085938 0.077381 245 240 243
-0.039062 -0.085938 0.076407 245 240 243
-0.035156 -0.085938 0.075287 245 240 243
-0.031250 -0.085938 0.073996 245 240 242
-0.027344 -0.085938 0.072420 244 239 242
-0.023438 -0.085938 0.070390 243 238 241
-0.019531 -0.085938 0.068076 243 237 241
-0.015625 -0.085938 0.065495 242 236 240
-0.011719 -0.085938 0.062590 241 236 240
-0.007812 -0.085938 0.059522 241 235 240
-0.003906 -0.085938 0.056211 241 235 240
0.000000 -0.085938 0.052760 241 235 240
0.003906 -0.085938 0.049010 240 235 240
0.007812 -0.085938 0.044947 240 234 239
0.011719 -0.085938 0.040848 239 233 238
0.015625 -0.085938 0.036237 238 231 236
0.019531 -0.085938 0.031440 237 231 235
0.023438 -0.085938 0.026378 237 231 234
0.027344 -0.085938 0.020417 236 231 234
0.031250 -0.085938 0.015648 237 232 235
0.035156 -0.085938 0.012362 237 233 236
0.039062 -0.085938 0.008374 236 233 235
0.042969 -0.085938 0.010199 236 233 235
0.046875 -0.085938 0.015653 237 233 236
0.050781 -0.085938 0.023150 234 230 234
0.054688 -0.085938 0.031615 231 227 232
0.058594 -0.085938 0.039078 229 225 231
0.062500 -0.085938 0.045712 229 225 232
0.066406 -0.085938 0.051823 231 227 234
0.070312 -0.085938 0.057358 231 228 235
0.074219 -0.085938 0.062998 232 228 236
0.078125 -0.085938 0.068165 233 230 237
0.082031 -0.085938 0.072801 235 231 238
0.085938 -0.085938 0.076674 237 233 240
0.089844 -0.085938 0.080185 238 234 240
0.093750 -0.085938 0.083585 238 234 241
0.097656 -0.085938 0.086613 238 235 241
0.101562 -0.085938 0.089368 239 235 241
0.105469 -0.085938 0.091831 239 236 242
0.109375 -0.085938 0.094059 240 236 242
0.113281 -0.085938 0.095901 241 237 243
0.117188 -0.085938 0.097271 242 238 243
0.121094 -0.085938 0.098372 242 238 243
0.125000 -0.085938 0.099350 242 238 243
0.128906 -0.085938 0.099987 242 238 243
0.132812 -0.085938 0.100260 242 238 243
0.136719 -0.085938 0.100308 243 239 243
0.140625 -0.085938 0.100248 243 239 243
0.144531 -0.085938 0.099938 243 239 243
0.148438 -0.085938 0.099353 243 239 243
0.152344 -0.085938 0.098568 243 239 243
0.156250 -0.085938 0.097666 243 239 243
0.160156 -0.085938 0.096532 243 239 243
0.164062 -0.085938 0.095141 243 239 243
0.167969 -0.085938 0.093506 243 239 243
0.171875 -0.085938 0.091718 243 239 243
0.175781 -0.085938 0.089779 243 239 243
0.179688 -0.085938 0.087820 242 239 243
0.183594 -0.085938 0.085719 241 238 242
0.187500 -0.085938 0.083532 240 238 242
0.191406 -0.085938 0.081224 240 237 242
0.195312 -0.085938 0.078767 239 236 241
0.199219 -0.085938 0.076144 239 235 240
0.203125 -0.085938 0.073221 238 234 239
0.207031 -0.085938 0.070037 238 233 238
0.210938 -0.085938 0.066706 237 232 237
0.214844 -0.085938 0.062963 236 231 236
0.218750 -0.085938 0.058497 235 229 235
0.222656 -0.085938 0.053715 234 227 234
0.226562 -0.085938 0.048722 234 227 234
0.230469 -0.085938 0.043606 237 231 236
0.234375 -0.085938 0.038075 240 236 239
0.238281 -0.085938 0.031602 238 233 235
0.242188 -0.085938 0.023350 239 233 233
0.246094 -0.085938 0.012552 122 100 118
0.285156 -0.085938 -0.069265 219 152 139
0.289062 -0.085938 -0.077817 196 120 111
0.292969 -0.085938 -0.080369 155 77 73
0.296875 -0.085938 -0.072300 143 69 62
0.300781 -0.085938 -0.061893 176 95 85
0.304688 -0.085938 -0.017314 208 138 124
0.308594 -0.085938 -0.014418 226 178 164
0.312500 -0.085938 -0.013666 228 190 184
0.316406 -0.085938 -0.023517 208 180 173
-0.230469 -0.089844 0.036225 1 0 2
-0.226562 -0.089844 0.046359 21 13 20
-0.222656 -0.089844 0.075143 101 61 63
-0.218750 -0.089844 0.085832 170 122 118
-0.214844 -0.089844 0.089451 211 168 160
-0.210938 -0.089844 0.090471 184 124 121
-0.207031 -0.089844 0.091293 144 80 80
-0.203125 -0.089844 0.092378 166 91 86
-0.199219 -0.089844 0.093943 211 137 124
-0.195312 -0.089844 0.093762 222 157 137
-0.191406 -0.089844 0.091631 189 109 93
-0.187500 -0.089844 0.089166 170 86 75
-0.183594 -0.089844 0.088674 204 127 111
-0.179688 -0.089844 0.089432 223 166 151
-0.175781 -0.089844 0.089452 225 177 172
-0.171875 -0.089844 0.088384 229 193 197
-0.167969 -0.089844 0.083442 242 228 229
-0.164062 -0.089844 0.078805 245 238 239
-0.160156 -0.089844 0.077024 242 236 238
-0.156250 -0.089844 0.077096 242 239 240
-0.152344 -0.089844 0.077550 237 235 239
-0.148438 -0.089844 0.078446 234 231 236
-0.144531 -0.089844 0.079061 239 235 239
-0.140625 -0.089844 0.079342 239 236 240
-0.136719 -0.089844 0.079488 240 236 240
-0.132812 -0.089844 0.079554 241 238 241
-0.128906 -0.089844 0.079632 240 237 241
-0.125000 -0.089844 0.079742 241 238 241
-0.121094 -0.089844 0.079904 241 238 242
-0.117188 -0.089844 0.080076 241 238 241
-0.113281 -0.089844 0.080223 240 237 241
-0.109375 -0.089844 0.080321 240 237 241
-0.105469 -0.089844 0.080448 240 237 241
-0.101562 -0.089844 0.080604 241 237 241
-0.097656 -0.089844 0.080690 241 237 241
-0.093750 -0.089844 0.080761 241 237 241
-0.089844 -0.089844 0.080776 241 237 241
-0.085938 -0.089844 0.080794 241 237 241
-0.082031 -0.089844 0.080748 242 237 241
-0.078125 -0.089844 0.080605 242 238 242
-0.074219 -0.089844 0.080404 242 238 242
-0.070312 -0.089844 0.080106 243 238 242
-0.066406 -0.089844 0.079797 243 238 242
-0.062500 -0.089844 0.079399 243 239 242
-0.058594 -0.089844 0.078952 243 239 242
-0.054688 -0.089844 0.078398 244 239 242
-0.050781 -0.089844 0.077767 244 239 242
-0.046875 -0.089844 0.077064 244 239 242
-0.042969 -0.089844 0.076209 245 240 243
-0.039062 -0.089844 0.075158 245 240 243
-0.035156 -0.089844 0.073933 245 240 243
-0.031250 -0.089844 0.072482 245 239 242
-0.027344 -0.089844 0.070705 244 238 241
-0.023438 -0.089844 0.068385 243 237 241
-0.019531 -0.089844 0.065734 242 237 240
-0.015625 -0.089844 0.062808 242 236 240
-0.011719 -0.089844 0.059625 242 236 240
-0.007812 -0.089844 0.056493 241 235 239
-0.003906 -0.089844 0.053161 240 234 238
0.000000 -0.089844 0.049593 240 233 238
