ply
    format ascii 1.0
    element vertex 56590
    property float x
    property float y
    property float z
    property uchar red
    property uchar green
    property uchar blue
    end_header
0.230469 0.480469 -0.053307 160 158 160
-0.144531 0.476562 -0.064383 7 7 7
-0.140625 0.476562 -0.073367 24 24 24
-0.136719 0.476562 -0.080205 69 69 69
-0.132812 0.476562 -0.086010 133 133 133
-0.128906 0.476562 -0.090935 24 23 21
-0.125000 0.476562 -0.095032 20 19 17
-0.121094 0.476562 -0.098323 53 52 50
-0.117188 0.476562 -0.100932 112 111 109
-0.113281 0.476562 -0.103138 37 36 34
-0.109375 0.476562 -0.104991 12 11 9
-0.105469 0.476562 -0.106096 14 13 11
-0.101562 0.476562 -0.106591 52 51 49
-0.097656 0.476562 -0.106958 53 52 50
-0.093750 0.476562 -0.107354 25 24 22
-0.089844 0.476562 -0.107861 10 9 7
-0.085938 0.476562 -0.108539 16 15 13
-0.082031 0.476562 -0.109291 25 24 22
-0.078125 0.476562 -0.110090 28 27 25
-0.074219 0.476562 -0.111013 17 16 14
-0.070312 0.476562 -0.112026 18 17 15
-0.066406 0.476562 -0.113283 9 8 6
-0.062500 0.476562 -0.114665 31 30 28
-0.058594 0.476562 -0.116027 22 21 19
-0.054688 0.476562 -0.117382 28 27 25
-0.050781 0.476562 -0.118630 47 46 44
-0.046875 0.476562 -0.119803 98 97 95
-0.042969 0.476562 -0.120828 99 98 96
-0.039062 0.476562 -0.121842 53 52 50
-0.035156 0.476562 -0.122751 45 44 42
-0.031250 0.476562 -0.123594 31 30 28
-0.027344 0.476562 -0.124617 82 81 79
-0.023438 0.476562 -0.125705 116 115 113
-0.019531 0.476562 -0.126784 63 62 60
-0.015625 0.476562 -0.127866 21 20 18
-0.011719 0.476562 -0.128731 37 36 34
-0.007812 0.476562 -0.129390 6 5 3
-0.003906 0.476562 -0.130177 98 97 95
0.000000 0.476562 -0.130955 110 109 107
0.003906 0.476562 -0.131586 78 77 75
0.007812 0.476562 -0.132148 28 27 25
0.011719 0.476562 -0.132689 14 13 11
0.015625 0.476562 -0.133177 32 31 29
0.019531 0.476562 -0.133730 77 76 74
0.023438 0.476562 -0.134331 128 127 125
0.027344 0.476562 -0.134879 127 126 124
0.031250 0.476562 -0.135386 67 66 64
0.035156 0.476562 -0.135875 18 17 15
0.039062 0.476562 -0.136330 7 6 4
0.042969 0.476562 -0.136693 17 16 14
0.046875 0.476562 -0.136935 50 49 47
0.050781 0.476562 -0.137102 97 96 94
0.054688 0.476562 -0.137155 128 127 125
0.058594 0.476562 -0.137110 84 83 81
0.062500 0.476562 -0.137020 51 50 48
0.066406 0.476562 -0.136822 25 24 22
0.070312 0.476562 -0.136563 16 15 13
0.074219 0.476562 -0.136293 17 16 14
0.078125 0.476562 -0.136032 32 31 29
0.082031 0.476562 -0.135766 48 47 45
0.085938 0.476562 -0.135483 49 48 46
0.089844 0.476562 -0.135152 94 93 91
0.093750 0.476562 -0.134764 85 84 82
0.097656 0.476562 -0.134370 86 85 83
0.101562 0.476562 -0.133930 93 92 90
0.105469 0.476562 -0.133390 79 78 76
0.109375 0.476562 -0.132707 45 44 42
0.113281 0.476562 -0.132015 20 19 17
0.117188 0.476562 -0.131252 14 13 11
0.121094 0.476562 -0.130438 13 12 10
0.125000 0.476562 -0.129623 27 26 24
0.128906 0.476562 -0.128707 40 39 37
0.132812 0.476562 -0.127765 49 48 46
0.136719 0.476562 -0.126837 64 63 61
0.140625 0.476562 -0.125922 87 86 84
0.144531 0.476562 -0.124938 104 103 101
0.148438 0.476562 -0.123802 110 109 107
0.152344 0.476562 -0.122616 114 113 111
0.156250 0.476562 -0.121298 101 100 98
0.160156 0.476562 -0.119515 91 90 88
0.164062 0.476562 -0.117429 96 95 93
0.167969 0.476562 -0.115133 109 108 106
0.171875 0.476562 -0.112658 111 110 108
0.175781 0.476562 -0.110345 97 96 94
0.179688 0.476562 -0.108098 81 80 78
0.183594 0.476562 -0.105764 82 82 80
0.187500 0.476562 -0.103382 91 91 89
0.191406 0.476562 -0.100704 103 103 101
0.195312 0.476562 -0.097621 94 94 92
0.199219 0.476562 -0.094686 54 53 51
0.203125 0.476562 -0.091543 24 23 21
0.207031 0.476562 -0.088079 46 46 44
0.210938 0.476562 -0.083899 91 91 89
0.214844 0.476562 -0.079997 59 59 57
0.218750 0.476562 -0.075193 38 38 36
0.222656 0.476562 -0.070798 20 20 18
0.226562 0.476562 -0.064330 70 70 68
0.230469 0.476562 -0.055063 159 158 159
-0.148438 0.472656 -0.028409 16 16 16
-0.144531 0.472656 -0.067301 97 97 97
-0.140625 0.472656 -0.074340 14 14 14
-0.136719 0.472656 -0.081078 16 16 16
-0.132812 0.472656 -0.086772 55 55 55
-0.128906 0.472656 -0.091542 100 99 97
-0.125000 0.472656 -0.095628 49 48 46
-0.121094 0.472656 -0.098899 18 17 15
-0.117188 0.472656 -0.101430 36 35 33
-0.113281 0.472656 -0.103565 86 85 83
-0.109375 0.472656 -0.105409 76 75 73
-0.105469 0.472656 -0.106493 35 34 32
-0.101562 0.472656 -0.106950 1 20 18
-0.097656 0.472656 -0.107247 20 19 17
-0.093750 0.472656 -0.107585 58 57 55
-0.089844 0.472656 -0.108102 41 40 38
-0.085938 0.472656 -0.108826 14 13 11
-0.082031 0.472656 -0.109605 46 45 43
-0.078125 0.472656 -0.110389 78 77 75
-0.074219 0.472656 -0.111323 84 83 81
-0.070312 0.472656 -0.112365 98 97 95
-0.066406 0.472656 -0.113645 117 116 114
-0.062500 0.472656 -0.115033 78 77 75
-0.058594 0.472656 -0.116391 56 55 53
-0.054688 0.472656 -0.117731 21 20 18
-0.050781 0.472656 -0.118950 22 21 19
-0.046875 0.472656 -0.120116 17 16 14
-0.042969 0.472656 -0.121120 36 35 33
-0.039062 0.472656 -0.122090 77 76 74
-0.035156 0.472656 -0.122961 115 114 112
-0.031250 0.472656 -0.123766 75 74 72
-0.027344 0.472656 -0.124773 14 13 11
-0.023438 0.472656 -0.125872 26 25 23
-0.019531 0.472656 -0.126939 54 53 51
-0.015625 0.472656 -0.127989 79 78 76
-0.011719 0.472656 -0.128849 109 108 106
-0.007812 0.472656 -0.129512 69 68 66
-0.003906 0.472656 -0.130283 14 13 11
0.000000 0.472656 -0.131056 31 30 28
0.003906 0.472656 -0.131667 54 53 51
0.007812 0.472656 -0.132191 92 91 89
0.011719 0.472656 -0.132712 114 113 111
0.015625 0.472656 -0.133178 79 78 76
0.019531 0.472656 -0.133710 35 34 32
0.023438 0.472656 -0.134305 31 30 28
0.027344 0.472656 -0.134829 54 53 51
0.031250 0.472656 -0.135298 82 81 79
0.035156 0.472656 -0.135773 122 121 119
0.039062 0.472656 -0.136207 127 126 124
0.042969 0.472656 -0.136558 80 79 77
0.046875 0.472656 -0.136804 34 33 31
0.050781 0.472656 -0.136969 19 18 16
0.054688 0.472656 -0.137032 20 19 17
0.058594 0.472656 -0.136985 29 28 26
0.062500 0.472656 -0.136883 66 65 63
0.066406 0.472656 -0.136681 120 119 117
0.070312 0.472656 -0.136413 136 135 133
0.074219 0.472656 -0.136150 97 96 94
0.078125 0.472656 -0.135899 51 50 48
0.082031 0.472656 -0.135636 30 29 27
0.085938 0.472656 -0.135371 21 20 18
0.089844 0.472656 -0.135059 9 8 6
0.093750 0.472656 -0.134696 24 23 21
0.097656 0.472656 -0.134338 53 52 50
0.101562 0.472656 -0.133933 93 92 90
0.105469 0.472656 -0.133428 130 129 127
0.109375 0.472656 -0.132782 141 140 138
0.113281 0.472656 -0.132126 119 118 116
0.117188 0.472656 -0.131390 89 88 86
0.121094 0.472656 -0.130610 82 81 79
0.125000 0.472656 -0.129840 77 76 74
0.128906 0.472656 -0.128966 55 54 52
0.132812 0.472656 -0.128073 25 24 22
0.136719 0.472656 -0.127216 10 9 7
0.140625 0.472656 -0.126339 14 13 11
0.144531 0.472656 -0.125379 22 21 19
0.148438 0.472656 -0.124282 24 23 21
0.152344 0.472656 -0.123134 16 15 13
0.156250 0.472656 -0.121869 28 27 25
0.160156 0.472656 -0.120141 39 38 36
0.164062 0.472656 -0.118132 39 38 36
0.167969 0.472656 -0.115918 30 29 27
0.171875 0.472656 -0.113523 23 22 20
0.175781 0.472656 -0.111308 25 24 22
0.179688 0.472656 -0.109199 29 28 26
0.183594 0.472656 -0.107017 36 36 34
0.187500 0.472656 -0.104706 19 19 17
0.191406 0.472656 -0.102080 37 37 35
0.195312 0.472656 -0.099057 90 90 88
0.199219 0.472656 -0.096148 111 111 109
0.203125 0.472656 -0.093077 75 75 73
0.207031 0.472656 -0.089705 30 30 28
0.210938 0.472656 -0.085592 11 11 9
0.214844 0.472656 -0.081807 16 16 14
0.218750 0.472656 -0.077122 25 25 23
0.222656 0.472656 -0.072776 25 25 23
0.226562 0.472656 -0.066243 72 72 70
0.230469 0.472656 -0.057101 161 160 160
-0.148438 0.468750 -0.052704 7 6 7
-0.144531 0.468750 -0.068570 41 41 41
-0.140625 0.468750 -0.075423 118 118 118
-0.136719 0.468750 -0.082163 71 71 71
-0.132812 0.468750 -0.087550 9 9 9
-0.128906 0.468750 -0.092211 19 18 16
-0.125000 0.468750 -0.096251 88 87 85
-0.121094 0.468750 -0.099422 97 96 94
-0.117188 0.468750 -0.101886 5 4 2
-0.113281 0.468750 -0.104036 8 7 5
-0.109375 0.468750 -0.105873 56 55 53
-0.105469 0.468750 -0.106876 90 89 87
-0.101562 0.468750 -0.107274 52 51 49
-0.097656 0.468750 -0.107543 9 8 6
-0.093750 0.468750 -0.107825 9 8 6
-0.089844 0.468750 -0.108332 34 33 31
-0.085938 0.468750 -0.109106 55 54 52
-0.082031 0.468750 -0.109930 56 55 53
-0.078125 0.468750 -0.110720 60 59 57
-0.074219 0.468750 -0.111688 51 50 48
-0.070312 0.468750 -0.112765 22 21 19
-0.066406 0.468750 -0.114054 48 47 45
-0.062500 0.468750 -0.115449 37 36 34
-0.058594 0.468750 -0.116805 95 94 92
-0.054688 0.468750 -0.118125 94 93 91
-0.050781 0.468750 -0.119316 141 140 138
-0.046875 0.468750 -0.120466 89 88 86
-0.042969 0.468750 -0.121451 30 29 27
-0.039062 0.468750 -0.122379 15 14 12
-0.035156 0.468750 -0.123210 25 24 22
-0.031250 0.468750 -0.123984 80 79 77
-0.027344 0.468750 -0.124972 84 83 81
-0.023438 0.468750 -0.126065 95 94 92
-0.019531 0.468750 -0.127107 65 64 62
-0.015625 0.468750 -0.128126 16 15 13
-0.011719 0.468750 -0.128981 51 50 48
-0.007812 0.468750 -0.129646 84 83 81
-0.003906 0.468750 -0.130398 106 105 103
0.000000 0.468750 -0.131149 94 93 91
0.003906 0.468750 -0.131735 47 46 44
0.007812 0.468750 -0.132230 17 16 14
0.011719 0.468750 -0.132727 44 43 41
0.015625 0.468750 -0.133177 81 80 78
0.019531 0.468750 -0.133694 96 95 93
0.023438 0.468750 -0.134265 105 104 102
0.027344 0.468750 -0.134756 67 66 64
0.031250 0.468750 -0.135193 30 29 27
0.035156 0.468750 -0.135656 25 24 22
0.039062 0.468750 -0.136088 59 58 56
0.042969 0.468750 -0.136434 84 83 81
0.046875 0.468750 -0.136681 89 88 86
0.050781 0.468750 -0.136836 83 82 80
0.054688 0.468750 -0.136897 75 74 72
0.058594 0.468750 -0.136850 43 42 40
0.062500 0.468750 -0.136745 22 21 19
0.066406 0.468750 -0.136550 16 15 13
0.070312 0.468750 -0.136284 28 27 25
0.074219 0.468750 -0.136026 47 46 44
0.078125 0.468750 -0.135781 83 82 80
0.082031 0.468750 -0.135521 125 124 122
0.085938 0.468750 -0.135273 146 145 143
0.089844 0.468750 -0.134974 104 103 101
0.093750 0.468750 -0.134618 59 58 56
0.097656 0.468750 -0.134287 22 21 19
0.101562 0.468750 -0.133918 17 16 14
0.105469 0.468750 -0.133445 16 15 13
0.109375 0.468750 -0.132834 16 15 13
0.113281 0.468750 -0.132215 39 38 36
0.117188 0.468750 -0.131516 74 73 71
0.121094 0.468750 -0.130777 113 112 110
0.125000 0.468750 -0.130055 123 122 120
0.128906 0.468750 -0.129217 123 122 120
0.132812 0.468750 -0.128372 111 110 108
0.136719 0.468750 -0.127547 101 100 98
0.140625 0.468750 -0.126703 100 99 97
0.144531 0.468750 -0.125768 95 94 92
0.148438 0.468750 -0.124700 86 85 83
0.152344 0.468750 -0.123588 69 68 66
0.156250 0.468750 -0.122374 76 75 73
0.160156 0.468750 -0.120694 86 85 83
0.164062 0.468750 -0.118754 91 90 88
0.167969 0.468750 -0.116617 92 91 89
0.171875 0.468750 -0.114301 94 93 91
0.175781 0.468750 -0.112192 98 97 95
0.179688 0.468750 -0.110216 102 101 99
0.183594 0.468750 -0.108162 110 110 108
0.187500 0.468750 -0.105930 65 65 63
0.191406 0.468750 -0.103368 28 28 26
0.195312 0.468750 -0.100403 29 29 27
0.199219 0.468750 -0.097509 42 42 40
0.203125 0.468750 -0.094510 41 41 39
0.207031 0.468750 -0.091230 32 32 30
0.210938 0.468750 -0.087199 27 27 25
0.214844 0.468750 -0.083555 46 46 44
0.218750 0.468750 -0.078978 100 100 98
0.222656 0.468750 -0.074668 115 115 113
0.226562 0.468750 -0.067988 126 126 124
0.230469 0.468750 -0.058861 176 176 175
-0.148438 0.464844 -0.058775 32 32 32
-0.144531 0.464844 -0.069123 7 7 7
-0.140625 0.464844 -0.076678 32 32 32
-0.136719 0.464844 -0.083233 90 90 90
-0.132812 0.464844 -0.088381 75 75 75
-0.128906 0.464844 -0.092945 26 25 23
-0.125000 0.464844 -0.096891 26 25 23
-0.121094 0.464844 -0.099965 32 31 29
-0.117188 0.464844 -0.102379 99 98 96
-0.113281 0.464844 -0.104519 42 41 39
-0.109375 0.464844 -0.106350 16 15 13
-0.105469 0.464844 -0.107303 21 20 18
-0.101562 0.464844 -0.107625 55 54 52
-0.097656 0.464844 -0.107855 83 82 80
-0.093750 0.464844 -0.108107 25 24 22
-0.089844 0.464844 -0.108615 4 3 1
-0.085938 0.464844 -0.109417 21 20 18
-0.082031 0.464844 -0.110271 22 21 19
-0.078125 0.464844 -0.111076 18 17 15
-0.074219 0.464844 -0.112083 21 20 18
-0.070312 0.464844 -0.113204 18 17 15
-0.066406 0.464844 -0.114518 15 14 12
-0.062500 0.464844 -0.115926 5 4 2
-0.058594 0.464844 -0.117258 27 26 24
-0.054688 0.464844 -0.118541 20 19 17
-0.050781 0.464844 -0.119699 36 35 33
-0.046875 0.464844 -0.120824 64 63 61
-0.042969 0.464844 -0.121783 109 108 106
-0.039062 0.464844 -0.122667 96 95 93
-0.035156 0.464844 -0.123476 45 44 42
-0.031250 0.464844 -0.124247 36 35 33
-0.027344 0.464844 -0.125204 1 41 39
-0.023438 0.464844 -0.126266 58 57 55
-0.019531 0.464844 -0.127298 110 109 107
-0.015625 0.464844 -0.128308 81 80 78
-0.011719 0.464844 -0.129153 61 60 58
-0.007812 0.464844 -0.129813 33 32 30
-0.003906 0.464844 -0.130528 31 30 28
0.000000 0.464844 -0.131238 63 62 60
0.003906 0.464844 -0.131803 96 95 93
0.007812 0.464844 -0.132272 79 78 76
0.011719 0.464844 -0.132751 56 55 53
0.015625 0.464844 -0.133189 41 40 38
0.019531 0.464844 -0.133668 25 24 22
0.023438 0.464844 -0.134195 43 42 40
0.027344 0.464844 -0.134661 83 82 80
0.031250 0.464844 -0.135065 81 80 78
0.035156 0.464844 -0.135513 80 79 77
0.039062 0.464844 -0.135939 61 60 58
0.042969 0.464844 -0.136273 26 25 23
0.046875 0.464844 -0.136526 19 18 16
0.050781 0.464844 -0.136670 48 47 45
0.054688 0.464844 -0.136721 74 73 71
0.058594 0.464844 -0.136681 85 84 82
0.062500 0.464844 -0.136579 80 79 77
0.066406 0.464844 -0.136397 78 77 75
0.070312 0.464844 -0.136141 61 60 58
0.074219 0.464844 -0.135891 27 26 24
0.078125 0.464844 -0.135660 11 10 8
0.082031 0.464844 -0.135411 21 20 18
0.085938 0.464844 -0.135180 29 28 26
0.089844 0.464844 -0.134884 52 51 49
0.093750 0.464844 -0.134520 80 79 77
0.097656 0.464844 -0.134202 133 132 130
0.101562 0.464844 -0.133851 162 161 159
0.105469 0.464844 -0.133396 136 135 133
0.109375 0.464844 -0.132802 85 84 82
0.113281 0.464844 -0.132213 41 40 38
0.117188 0.464844 -0.131552 13 12 10
0.121094 0.464844 -0.130849 19 18 16
0.125000 0.464844 -0.130176 16 15 13
0.128906 0.464844 -0.129394 18 17 15
0.132812 0.464844 -0.128579 31 30 28
0.136719 0.464844 -0.127772 46 45 43
0.140625 0.464844 -0.126952 54 53 51
0.144531 0.464844 -0.126061 54 53 51
0.148438 0.464844 -0.125022 51 50 48
0.152344 0.464844 -0.123932 51 50 48
0.156250 0.464844 -0.122758 55 54 52
0.160156 0.464844 -0.121121 52 51 49
0.164062 0.464844 -0.119238 35 34 32
0.167969 0.464844 -0.117183 24 23 21
0.171875 0.464844 -0.114987 36 35 33
0.175781 0.464844 -0.113023 45 44 42
0.179688 0.464844 -0.111146 39 38 36
0.183594 0.464844 -0.109187 85 85 83
0.187500 0.464844 -0.107022 127 127 125
0.191406 0.464844 -0.104526 104 104 102
0.195312 0.464844 -0.101629 39 39 37
0.199219 0.464844 -0.098796 21 21 19
0.203125 0.464844 -0.095884 38 38 36
0.207031 0.464844 -0.092707 64 64 62
0.210938 0.464844 -0.088730 94 94 92
0.214844 0.464844 -0.085203 144 144 142
0.218750 0.464844 -0.080754 113 113 111
0.222656 0.464844 -0.076412 82 82 80
0.226562 0.464844 -0.069648 72 72 70
0.230469 0.464844 -0.060829 121 121 120
-0.148438 0.460938 -0.062743 119 118 119
-0.144531 0.460938 -0.071067 101 101 101
-0.140625 0.460938 -0.077903 17 17 17
-0.136719 0.460938 -0.084190 12 12 12
-0.132812 0.460938 -0.089203 61 61 61
-0.128906 0.460938 -0.093601 119 118 116
-0.125000 0.460938 -0.097443 31 30 28
-0.121094 0.460938 -0.100520 21 20 18
-0.117188 0.460938 -0.102898 16 15 13
-0.113281 0.460938 -0.104966 101 100 98
-0.109375 0.460938 -0.106776 65 64 62
-0.105469 0.460938 -0.107720 4 3 1
-0.101562 0.460938 -0.107981 21 20 18
-0.097656 0.460938 -0.108145 36 35 33
-0.093750 0.460938 -0.108376 54 53 51
-0.089844 0.460938 -0.108870 27 26 24
-0.085938 0.460938 -0.109690 6 5 3
-0.082031 0.460938 -0.110584 33 32 30
-0.078125 0.460938 -0.111398 49 48 46
-0.074219 0.460938 -0.112436 52 51 49
-0.070312 0.460938 -0.113604 76 75 73
-0.066406 0.460938 -0.114939 60 59 57
-0.062500 0.460938 -0.116368 66 65 63
-0.058594 0.460938 -0.117681 49 48 46
-0.054688 0.460938 -0.118929 27 26 24
-0.050781 0.460938 -0.120073 13 12 10
-0.046875 0.460938 -0.121184 19 18 16
-0.042969 0.460938 -0.122114 27 26 24
-0.039062 0.460938 -0.122961 39 38 36
-0.035156 0.460938 -0.123745 79 78 76
-0.031250 0.460938 -0.124507 127 126 124
-0.027344 0.460938 -0.125439 87 86 84
-0.023438 0.460938 -0.126468 42 41 39
-0.019531 0.460938 -0.127491 24 23 21
-0.015625 0.460938 -0.128495 34 33 31
-0.011719 0.460938 -0.129324 85 84 82
-0.007812 0.460938 -0.129963 93 92 90
-0.003906 0.460938 -0.130638 65 64 62
0.000000 0.460938 -0.131311 43 42 40
0.003906 0.460938 -0.131847 27 26 24
0.007812 0.460938 -0.132292 41 40 38
0.011719 0.460938 -0.132757 76 75 73
0.015625 0.460938 -0.133171 87 86 84
0.019531 0.460938 -0.133611 67 66 64
0.023438 0.460938 -0.134095 59 58 56
0.027344 0.460938 -0.134529 21 20 18
0.031250 0.460938 -0.134905 20 19 17
0.035156 0.460938 -0.135336 49 48 46
0.039062 0.460938 -0.135761 91 90 88
0.042969 0.460938 -0.136093 105 104 102
0.046875 0.460938 -0.136349 92 91 89
0.050781 0.460938 -0.136493 62 61 59
0.054688 0.460938 -0.136547 34 33 31
0.058594 0.460938 -0.136520 28 27 25
0.062500 0.460938 -0.136435 33 32 30
0.066406 0.460938 -0.136275 57 56 54
0.070312 0.460938 -0.136045 82 81 79
0.074219 0.460938 -0.135814 88 87 85
0.078125 0.460938 -0.135596 87 86 84
0.082031 0.460938 -0.135356 81 80 78
0.085938 0.460938 -0.135132 67 66 64
0.089844 0.460938 -0.134846 30 29 27
0.093750 0.460938 -0.134488 22 21 19
0.097656 0.460938 -0.134180 26 25 23
0.101562 0.460938 -0.133842 32 31 29
0.105469 0.460938 -0.133399 35 34 32
0.109375 0.460938 -0.132820 59 58 56
0.113281 0.460938 -0.132243 102 101 99
0.117188 0.460938 -0.131604 130 129 127
0.121094 0.460938 -0.130929 138 137 135
0.125000 0.460938 -0.130289 99 98 96
0.128906 0.460938 -0.129551 68 67 65
0.132812 0.460938 -0.128734 66 65 63
0.136719 0.460938 -0.127937 73 72 70
0.140625 0.460938 -0.127151 68 67 65
0.144531 0.460938 -0.126283 58 57 55
0.148438 0.460938 -0.125258 53 52 50
0.152344 0.460938 -0.124182 77 76 74
0.156250 0.460938 -0.123043 98 97 95
0.160156 0.460938 -0.121457 92 91 89
0.164062 0.460938 -0.119641 76 75 73
0.167969 0.460938 -0.117659 73 72 70
0.171875 0.460938 -0.115545 56 55 53
0.175781 0.460938 -0.113693 34 33 31
0.179688 0.460938 -0.111918 32 31 29
0.183594 0.460938 -0.110037 20 20 18
0.187500 0.460938 -0.107943 57 57 55
0.191406 0.460938 -0.105506 113 113 111
0.195312 0.460938 -0.102656 126 126 124
0.199219 0.460938 -0.099907 105 105 103
0.203125 0.460938 -0.097088 112 112 110
0.207031 0.460938 -0.094032 119 119 117
0.210938 0.460938 -0.090147 93 93 91
0.214844 0.460938 -0.086714 53 53 51
0.218750 0.460938 -0.082347 29 29 27
0.222656 0.460938 -0.078080 13 13 11
0.226562 0.460938 -0.071297 23 23 21
0.230469 0.460938 -0.062559 95 95 93
-0.148438 0.457031 -0.062066 7 6 7
-0.144531 0.457031 -0.072586 78 78 78
-0.140625 0.457031 -0.079187 99 99 99
-0.136719 0.457031 -0.085034 38 38 38
-0.132812 0.457031 -0.089921 17 17 17
-0.128906 0.457031 -0.094259 38 37 35
-0.125000 0.457031 -0.098001 98 97 95
-0.121094 0.457031 -0.101029 76 75 73
-0.117188 0.457031 -0.103382 23 22 20
-0.113281 0.457031 -0.105417 20 19 17
-0.109375 0.457031 -0.107174 47 46 44
-0.105469 0.457031 -0.108091 100 99 97
-0.101562 0.457031 -0.108342 39 38 36
-0.097656 0.457031 -0.108457 7 6 4
-0.093750 0.457031 -0.108649 7 6 4
-0.089844 0.457031 -0.109092 25 24 22
-0.085938 0.457031 -0.109919 54 53 51
-0.082031 0.457031 -0.110829 72 71 69
-0.078125 0.457031 -0.111620 80 79 77
-0.074219 0.457031 -0.112693 79 78 76
-0.070312 0.457031 -0.113917 70 69 67
-0.066406 0.457031 -0.115274 66 65 63
-0.062500 0.457031 -0.116731 94 93 91
-0.058594 0.457031 -0.118037 85 84 82
-0.054688 0.457031 -0.119254 111 110 108
-0.050781 0.457031 -0.120389 122 121 119
-0.046875 0.457031 -0.121489 110 109 107
-0.042969 0.457031 -0.122404 44 43 41
-0.039062 0.457031 -0.123249 31 30 28
-0.035156 0.457031 -0.124023 5 4 2
-0.031250 0.457031 -0.124770 23 22 20
-0.027344 0.457031 -0.125681 33 32 30
-0.023438 0.457031 -0.126678 89 88 86
-0.019531 0.457031 -0.127691 107 106 104
-0.015625 0.457031 -0.128685 58 57 55
-0.011719 0.457031 -0.129478 31 30 28
-0.007812 0.457031 -0.130091 12 11 9
-0.003906 0.457031 -0.130731 46 45 43
0.000000 0.457031 -0.131360 110 109 107
0.003906 0.457031 -0.131879 116 115 113
0.007812 0.457031 -0.132308 65 64 62
0.011719 0.457031 -0.132746 25 24 22
0.015625 0.457031 -0.133134 31 30 28
0.019531 0.457031 -0.133534 65 64 62
0.023438 0.457031 -0.133966 81 80 78
0.027344 0.457031 -0.134372 143 142 140
0.031250 0.457031 -0.134728 93 92 90
0.035156 0.457031 -0.135148 51 50 48
0.039062 0.457031 -0.135577 34 33 31
0.042969 0.457031 -0.135900 29 28 26
0.046875 0.457031 -0.136147 48 47 45
0.050781 0.457031 -0.136293 91 90 88
0.054688 0.457031 -0.136358 123 122 120
0.058594 0.457031 -0.136355 102 101 99
0.062500 0.457031 -0.136295 75 74 72
0.066406 0.457031 -0.136163 47 46 44
0.070312 0.457031 -0.135973 24 23 21
0.074219 0.457031 -0.135764 14 13 11
0.078125 0.457031 -0.135563 35 34 32
0.082031 0.457031 -0.135326 68 67 65
0.085938 0.457031 -0.135092 82 81 79
0.089844 0.457031 -0.134815 78 77 75
0.093750 0.457031 -0.134456 75 74 72
0.097656 0.457031 -0.134151 79 78 76
0.101562 0.457031 -0.133820 72 71 69
0.105469 0.457031 -0.133380 46 45 43
0.109375 0.457031 -0.132816 30 29 27
0.113281 0.457031 -0.132250 28 27 25
0.117188 0.457031 -0.131631 25 24 22
0.121094 0.457031 -0.130984 10 9 7
0.125000 0.457031 -0.130385 20 19 17
0.128906 0.457031 -0.129653 50 49 47
0.132812 0.457031 -0.128837 79 78 76
0.136719 0.457031 -0.128065 77 76 74
0.140625 0.457031 -0.127307 55 54 52
0.144531 0.457031 -0.126431 53 52 50
0.148438 0.457031 -0.125412 68 67 65
0.152344 0.457031 -0.124353 58 57 55
0.156250 0.457031 -0.123235 24 23 21
0.160156 0.457031 -0.121700 31 30 28
0.164062 0.457031 -0.119962 66 65 63
0.167969 0.457031 -0.118043 95 94 92
0.171875 0.457031 -0.115992 129 128 126
0.175781 0.457031 -0.114226 132 131 129
0.179688 0.457031 -0.112544 96 95 93
0.183594 0.457031 -0.110765 32 32 30
0.187500 0.457031 -0.108784 3 3 2
0.191406 0.457031 -0.106414 29 29 27
0.195312 0.457031 -0.103622 77 77 75
0.199219 0.457031 -0.100925 78 78 76
0.203125 0.457031 -0.098163 59 59 57
0.207031 0.457031 -0.095205 40 40 38
0.210938 0.457031 -0.091430 16 16 14
0.214844 0.457031 -0.088092 22 22 20
0.218750 0.457031 -0.083796 15 15 13
0.222656 0.457031 -0.079678 17 17 15
0.226562 0.457031 -0.072903 33 33 31
0.230469 0.457031 -0.064298 101 101 99
-0.148438 0.453125 -0.063673 32 32 32
-0.144531 0.453125 -0.073927 13 13 13
-0.140625 0.453125 -0.080344 38 38 38
-0.136719 0.453125 -0.085779 108 108 108
-0.132812 0.453125 -0.090595 72 72 72
-0.128906 0.453125 -0.094908 13 12 10
-0.125000 0.453125 -0.098563 15 14 12
-0.121094 0.453125 -0.101501 69 68 66
-0.117188 0.453125 -0.103813 92 91 89
-0.113281 0.453125 -0.105832 28 27 25
-0.109375 0.453125 -0.107550 11 10 8
-0.105469 0.453125 -0.108453 25 24 22
-0.101562 0.453125 -0.108680 70 69 67
-0.097656 0.453125 -0.108713 60 59 57
-0.093750 0.453125 -0.108874 18 17 15
-0.089844 0.453125 -0.109306 13 12 10
-0.085938 0.453125 -0.110117 23 22 20
-0.082031 0.453125 -0.111012 12 11 9
-0.078125 0.453125 -0.111776 16 15 13
-0.074219 0.453125 -0.112895 20 19 17
-0.070312 0.453125 -0.114192 9 8 6
-0.066406 0.453125 -0.115588 15 14 12
-0.062500 0.453125 -0.117067 27 26 24
-0.058594 0.453125 -0.118369 16 15 13
-0.054688 0.453125 -0.119560 24 23 21
-0.050781 0.453125 -0.120672 35 34 32
-0.046875 0.453125 -0.121761 61 60 58
-0.042969 0.453125 -0.122668 85 84 82
-0.039062 0.453125 -0.123513 129 128 126
-0.035156 0.453125 -0.124279 105 104 102
-0.031250 0.453125 -0.125000 96 95 93
-0.027344 0.453125 -0.125892 42 41 39
-0.023438 0.453125 -0.126867 13 12 10
-0.019531 0.453125 -0.127869 23 22 20
-0.015625 0.453125 -0.128856 59 58 56
-0.011719 0.453125 -0.129611 107 106 104
-0.007812 0.453125 -0.130191 114 113 111
-0.003906 0.453125 -0.130796 43 42 40
0.000000 0.453125 -0.131378 31 30 28
0.003906 0.453125 -0.131874 27 26 24
0.007812 0.453125 -0.132279 86 85 83
0.011719 0.453125 -0.132684 131 130 128
0.015625 0.453125 -0.133037 103 102 100
0.019531 0.453125 -0.133396 58 57 55
0.023438 0.453125 -0.133784 21 20 18
0.027344 0.453125 -0.134166 9 8 6
0.031250 0.453125 -0.134509 42 41 39
0.035156 0.453125 -0.134919 106 105 103
0.039062 0.453125 -0.135347 143 142 140
0.042969 0.453125 -0.135661 113 112 110
0.046875 0.453125 -0.135902 61 60 58
0.050781 0.453125 -0.136064 36 35 33
0.054688 0.453125 -0.136159 34 33 31
0.058594 0.453125 -0.136186 27 26 24
0.062500 0.453125 -0.136164 68 67 65
0.066406 0.453125 -0.136068 119 118 116
0.070312 0.453125 -0.135914 130 129 127
0.074219 0.453125 -0.135735 100 99 97
0.078125 0.453125 -0.135555 70 69 67
0.082031 0.453125 -0.135334 51 50 48
0.085938 0.453125 -0.135103 34 33 31
0.089844 0.453125 -0.134832 29 28 26
0.093750 0.453125 -0.134475 36 35 33
0.097656 0.453125 -0.134170 56 55 53
0.101562 0.453125 -0.133829 69 68 66
0.105469 0.453125 -0.133378 73 72 70
0.109375 0.453125 -0.132816 88 87 85
0.113281 0.453125 -0.132251 107 106 104
0.117188 0.453125 -0.131634 111 110 108
0.121094 0.453125 -0.131001 96 95 93
0.125000 0.453125 -0.130424 80 79 77
0.128906 0.453125 -0.129696 65 64 62
0.132812 0.453125 -0.128880 60 59 57
0.136719 0.453125 -0.128123 58 57 55
0.140625 0.453125 -0.127370 58 57 55
0.144531 0.453125 -0.126487 70 69 67
0.148438 0.453125 -0.125467 85 84 82
0.152344 0.453125 -0.124406 71 70 68
0.156250 0.453125 -0.123311 73 72 70
0.160156 0.453125 -0.121840 32 31 29
0.164062 0.453125 -0.120174 22 21 19
0.167969 0.453125 -0.118331 12 11 9
0.171875 0.453125 -0.116347 26 25 23
0.175781 0.453125 -0.114639 61 60 58
0.179688 0.453125 -0.113029 123 122 120
0.183594 0.453125 -0.111360 133 133 131
0.187500 0.453125 -0.109479 91 91 89
0.191406 0.453125 -0.107191 26 26 24
0.195312 0.453125 -0.104496 5 4 3
0.199219 0.453125 -0.101866 23 23 21
0.203125 0.453125 -0.099200 16 16 14
0.207031 0.453125 -0.096319 8 8 6
0.210938 0.453125 -0.092601 33 33 31
0.214844 0.453125 -0.089329 54 54 52
0.218750 0.453125 -0.085084 78 78 76
0.222656 0.453125 -0.080979 109 109 107
0.226562 0.453125 -0.074169 124 124 122
0.230469 0.453125 -0.066010 158 158 156
-0.148438 0.449219 -0.067429 119 118 119
-0.144531 0.449219 -0.075524 62 61 62
-0.140625 0.449219 -0.081151 18 18 18
-0.136719 0.449219 -0.086576 27 27 27
-0.132812 0.449219 -0.091187 69 69 69
-0.128906 0.449219 -0.095418 94 93 91
-0.125000 0.449219 -0.099043 44 43 41
-0.121094 0.449219 -0.101940 20 19 17
-0.117188 0.449219 -0.104189 24 23 21
-0.113281 0.449219 -0.106175 81 80 78
-0.109375 0.449219 -0.107885 58 57 55
-0.105469 0.449219 -0.108788 12 11 9
-0.101562 0.449219 -0.108975 17 16 14
-0.097656 0.449219 -0.108917 40 39 37
-0.093750 0.449219 -0.109037 62 61 59
-0.089844 0.449219 -0.109458 32 31 29
-0.085938 0.449219 -0.110205 4 3 1
-0.082031 0.449219 -0.111039 15 14 12
-0.078125 0.449219 -0.111762 40 39 37
-0.074219 0.449219 -0.112933 42 41 39
-0.070312 0.449219 -0.114311 48 47 45
-0.066406 0.449219 -0.115748 52 51 49
-0.062500 0.449219 -0.117250 31 30 28
-0.058594 0.449219 -0.118559 34 33 31
-0.054688 0.449219 -0.119743 20 19 17
-0.050781 0.449219 -0.120855 9 8 6
-0.046875 0.449219 -0.121964 2 1 25
-0.042969 0.449219 -0.122880 26 25 23
-0.039062 0.449219 -0.123720 27 26 24
-0.035156 0.449219 -0.124474 32 31 29
-0.031250 0.449219 -0.125176 77 76 74
-0.027344 0.449219 -0.126059 115 114 112
-0.023438 0.449219 -0.127012 117 116 114
-0.019531 0.449219 -0.127994 68 67 65
-0.015625 0.449219 -0.128988 20 19 17
-0.011719 0.449219 -0.129715 24 23 21
-0.007812 0.449219 -0.130246 37 36 34
-0.003906 0.449219 -0.130816 88 87 85
0.000000 0.449219 -0.131363 98 97 95
0.003906 0.449219 -0.131831 66 65 63
0.007812 0.449219 -0.132218 26 25 23
0.011719 0.449219 -0.132578 21 20 18
0.015625 0.449219 -0.132874 48 47 45
0.019531 0.449219 -0.133197 86 85 83
0.023438 0.449219 -0.133550 105 104 102
0.027344 0.449219 -0.133906 110 109 107
0.031250 0.449219 -0.134235 57 56 54
0.035156 0.449219 -0.134627 21 20 18
0.039062 0.449219 -0.135050 24 23 21
0.042969 0.449219 -0.135358 43 42 40
0.046875 0.449219 -0.135594 74 73 71
0.050781 0.449219 -0.135787 111 110 108
0.054688 0.449219 -0.135925 132 131 129
0.058594 0.449219 -0.135987 61 60 58
0.062500 0.449219 -0.136018 45 44 42
0.066406 0.449219 -0.135967 30 29 27
0.070312 0.449219 -0.135853 22 21 19
0.074219 0.449219 -0.135701 37 36 34
0.078125 0.449219 -0.135531 80 79 77
0.082031 0.449219 -0.135333 115 114 112
0.085938 0.449219 -0.135113 119 118 116
0.089844 0.449219 -0.134851 80 79 77
0.093750 0.449219 -0.134503 71 70 68
0.097656 0.449219 -0.134189 61 60 58
0.101562 0.449219 -0.133834 40 39 37
0.105469 0.449219 -0.133372 21 20 18
0.109375 0.449219 -0.132811 26 25 23
0.113281 0.449219 -0.132239 37 36 34
0.117188 0.449219 -0.131616 34 33 31
0.121094 0.449219 -0.131012 38 37 35
0.125000 0.449219 -0.130435 54 53 51
0.128906 0.449219 -0.129706 65 64 62
0.132812 0.449219 -0.128888 65 64 62
0.136719 0.449219 -0.128126 67 66 64
0.140625 0.449219 -0.127363 71 70 68
0.144531 0.449219 -0.126467 69 68 66
0.148438 0.449219 -0.125440 61 60 58
0.152344 0.449219 -0.124372 83 82 80
0.156250 0.449219 -0.123269 86 85 83
0.160156 0.449219 -0.121829 120 119 117
0.164062 0.449219 -0.120260 117 116 114
0.167969 0.449219 -0.118502 55 54 52
0.171875 0.449219 -0.116586 22 21 19
0.175781 0.449219 -0.114965 25 24 22
0.179688 0.449219 -0.113451 14 13 11
0.183594 0.449219 -0.111885 63 63 61
0.187500 0.449219 -0.110074 109 109 107
0.191406 0.449219 -0.107860 97 97 95
0.195312 0.449219 -0.105264 45 45 43
0.199219 0.449219 -0.102736 32 32 30
0.203125 0.449219 -0.100160 53 53 51
0.207031 0.449219 -0.097341 95 95 93
0.210938 0.449219 -0.093685 144 144 142
0.214844 0.449219 -0.090448 110 110 108
0.218750 0.449219 -0.086205 106 106 104
0.222656 0.449219 -0.082243 95 95 93
0.226562 0.449219 -0.075638 75 75 73
0.230469 0.449219 -0.066930 106 106 104
-0.152344 0.445312 -0.056499 37 34 37
-0.148438 0.445312 -0.069585 26 25 26
-0.144531 0.445312 -0.075892 71 71 71
-0.140625 0.445312 -0.081930 99 99 99
-0.136719 0.445312 -0.087452 17 17 17
-0.132812 0.445312 -0.091749 12 12 12
-0.128906 0.445312 -0.095898 55 54 52
-0.125000 0.445312 -0.099469 112 111 109
-0.121094 0.445312 -0.102287 54 53 51
-0.117188 0.445312 -0.104477 20 19 17
-0.113281 0.445312 -0.106478 20 19 17
-0.109375 0.445312 -0.108175 69 68 66
-0.105469 0.445312 -0.109024 89 88 86
-0.101562 0.445312 -0.109188 29 28 26
-0.097656 0.445312 -0.109125 8 7 5
-0.093750 0.445312 -0.109213 20 19 17
-0.089844 0.445312 -0.109559 27 26 24
-0.085938 0.445312 -0.110229 38 37 35
-0.082031 0.445312 -0.110974 67 66 64
-0.078125 0.445312 -0.111633 88 87 85
-0.074219 0.445312 -0.112839 87 86 84
-0.070312 0.445312 -0.114295 78 77 75
-0.066406 0.445312 -0.115783 112 111 109
-0.062500 0.445312 -0.117315 85 84 82
-0.058594 0.445312 -0.118629 112 111 109
-0.054688 0.445312 -0.119819 122 121 119
-0.050781 0.445312 -0.120944 130 129 127
-0.046875 0.445312 -0.122081 101 100 98
-0.042969 0.445312 -0.123006 73 72 70
-0.039062 0.445312 -0.123831 6 5 3
-0.035156 0.445312 -0.124580 32 31 29
-0.031250 0.445312 -0.125278 15 14 12
-0.027344 0.445312 -0.126152 9 8 6
-0.023438 0.445312 -0.127091 34 33 31
-0.019531 0.445312 -0.128061 88 87 85
-0.015625 0.445312 -0.129064 132 131 129
-0.011719 0.445312 -0.129766 107 106 104
-0.007812 0.445312 -0.130236 42 41 39
-0.003906 0.445312 -0.130766 14 13 11
0.000000 0.445312 -0.131281 24 23 21
0.003906 0.445312 -0.131724 71 70 68
0.007812 0.445312 -0.132084 104 103 101
0.011719 0.445312 -0.132388 102 101 99
0.015625 0.445312 -0.132625 57 56 54
0.019531 0.445312 -0.132912 7 6 4
0.023438 0.445312 -0.133234 17 16 14
0.027344 0.445312 -0.133566 38 37 35
0.031250 0.445312 -0.133876 54 53 51
0.035156 0.445312 -0.134248 85 84 82
0.039062 0.445312 -0.134665 90 89 87
0.042969 0.445312 -0.134972 56 55 53
0.046875 0.445312 -0.135215 26 25 23
0.050781 0.445312 -0.135441 23 22 20
0.054688 0.445312 -0.135627 29 28 26
0.058594 0.445312 -0.135742 73 72 70
0.062500 0.445312 -0.135830 108 107 105
0.066406 0.445312 -0.135824 136 135 133
0.070312 0.445312 -0.135750 117 116 114
0.074219 0.445312 -0.135633 71 70 68
0.078125 0.445312 -0.135486 47 46 44
0.082031 0.445312 -0.135317 37 36 34
0.085938 0.445312 -0.135113 22 21 19
0.089844 0.445312 -0.134864 48 47 45
0.093750 0.445312 -0.134523 60 59 57
0.097656 0.445312 -0.134199 79 78 76
0.101562 0.445312 -0.133827 86 85 83
0.105469 0.445312 -0.133357 86 85 83
0.109375 0.445312 -0.132790 98 97 95
0.113281 0.445312 -0.132206 101 100 98
0.117188 0.445312 -0.131584 86 85 83
0.121094 0.445312 -0.130990 48 47 45
0.125000 0.445312 -0.130405 77 76 74
0.128906 0.445312 -0.129670 86 85 83
0.132812 0.445312 -0.128846 60 59 57
0.136719 0.445312 -0.128067 35 34 32
0.140625 0.445312 -0.127275 32 31 29
0.144531 0.445312 -0.126352 34 33 31
0.148438 0.445312 -0.125311 30 29 27
0.152344 0.445312 -0.124248 4 3 1
0.156250 0.445312 -0.123150 25 24 22
0.160156 0.445312 -0.121746 39 38 36
0.164062 0.445312 -0.120241 82 81 79
0.167969 0.445312 -0.118532 141 140 138
0.171875 0.445312 -0.116679 128 127 125
0.175781 0.445312 -0.115176 63 62 60
0.179688 0.445312 -0.113786 28 27 25
0.183594 0.445312 -0.112293 25 25 23
0.187500 0.445312 -0.110575 11 11 9
0.191406 0.445312 -0.108451 43 43 41
0.195312 0.445312 -0.105948 89 89 87
0.199219 0.445312 -0.103521 102 102 100
0.203125 0.445312 -0.101020 104 104 102
0.207031 0.445312 -0.098256 86 86 84
0.210938 0.445312 -0.094671 45 45 43
0.214844 0.445312 -0.091473 27 27 25
0.218750 0.445312 -0.087408 24 24 22
0.222656 0.445312 -0.083378 22 22 20
0.226562 0.445312 -0.077063 23 23 21
0.230469 0.445312 -0.067726 83 83 81
-0.152344 0.441406 -0.061210 72 70 74
-0.148438 0.441406 -0.069329 9 9 9
-0.144531 0.441406 -0.076814 21 21 21
-0.140625 0.441406 -0.082646 49 49 49
-0.136719 0.441406 -0.087913 100 100 100
-0.132812 0.441406 -0.092188 66 66 66
-0.128906 0.441406 -0.096276 21 20 18
-0.125000 0.441406 -0.099774 4 3 1
-0.121094 0.441406 -0.102515 68 67 65
-0.117188 0.441406 -0.104676 109 108 106
-0.113281 0.441406 -0.106695 25 24 22
-0.109375 0.441406 -0.108383 20 19 17
-0.105469 0.441406 -0.109189 12 11 9
-0.101562 0.441406 -0.109312 86 85 83
-0.097656 0.441406 -0.109240 58 57 55
-0.093750 0.441406 -0.109316 7 6 4
-0.089844 0.441406 -0.109559 4 3 1
-0.085938 0.441406 -0.110113 25 24 22
-0.082031 0.441406 -0.110736 16 15 13
-0.078125 0.441406 -0.111335 18 17 15
-0.074219 0.441406 -0.112587 27 26 24
-0.070312 0.441406 -0.114137 9 8 6
-0.066406 0.441406 -0.115702 16 15 13
-0.062500 0.441406 -0.117273 15 14 12
-0.058594 0.441406 -0.118594 15 14 12
-0.054688 0.441406 -0.119796 7 6 4
-0.050781 0.441406 -0.120934 18 17 15
-0.046875 0.441406 -0.122089 52 51 49
-0.042969 0.441406 -0.123005 95 94 92
-0.039062 0.441406 -0.123812 112 111 109
-0.035156 0.441406 -0.124571 121 120 118
-0.031250 0.441406 -0.125274 62 61 59
-0.027344 0.441406 -0.126149 44 43 41
-0.023438 0.441406 -0.127101 48 47 45
-0.019531 0.441406 -0.128079 21 20 18
-0.015625 0.441406 -0.129084 11 10 8
-0.011719 0.441406 -0.129741 61 60 58
-0.007812 0.441406 -0.130147 127 126 124
-0.003906 0.441406 -0.130647 78 77 75
0.000000 0.441406 -0.131136 41 40 38
0.003906 0.441406 -0.131543 25 24 22
0.007812 0.441406 -0.131866 15 14 12
0.011719 0.441406 -0.132127 61 60 58
0.015625 0.441406 -0.132319 147 146 144
0.019531 0.441406 -0.132574 123 122 120
0.023438 0.441406 -0.132868 111 110 108
0.027344 0.441406 -0.133172 58 57 55
0.031250 0.441406 -0.133467 39 38 36
0.035156 0.441406 -0.133824 33 32 30
0.039062 0.441406 -0.134235 44 43 41
0.042969 0.441406 -0.134552 62 61 59
0.046875 0.441406 -0.134818 83 82 80
0.050781 0.441406 -0.135084 91 90 88
0.054688 0.441406 -0.135323 81 80 78
0.058594 0.441406 -0.135488 27 26 24
0.062500 0.441406 -0.135630 26 25 23
0.066406 0.441406 -0.135663 31 30 28
0.070312 0.441406 -0.135623 46 45 43
0.074219 0.441406 -0.135556 81 80 78
0.078125 0.441406 -0.135446 125 124 122
0.082031 0.441406 -0.135306 134 133 131
0.085938 0.441406 -0.135120 108 107 105
0.089844 0.441406 -0.134878 56 55 53
0.093750 0.441406 -0.134543 55 54 52
0.097656 0.441406 -0.134208 51 50 48
0.101562 0.441406 -0.133812 36 35 33
0.105469 0.441406 -0.133324 27 26 24
0.109375 0.441406 -0.132746 41 40 38
0.113281 0.441406 -0.132152 50 49 47
0.117188 0.441406 -0.131529 37 36 34
0.121094 0.441406 -0.130908 63 62 60
0.125000 0.441406 -0.130308 68 67 65
0.128906 0.441406 -0.129567 69 68 66
0.132812 0.441406 -0.128723 74 73 71
0.136719 0.441406 -0.127907 97 96 94
0.140625 0.441406 -0.127066 123 122 120
0.144531 0.441406 -0.126093 128 127 125
0.148438 0.441406 -0.125011 116 115 113
0.152344 0.441406 -0.123939 82 81 79
0.156250 0.441406 -0.122896 50 49 47
0.160156 0.441406 -0.121561 28 27 25
0.164062 0.441406 -0.120101 22 21 19
0.167969 0.441406 -0.118451 35 34 32
0.171875 0.441406 -0.116689 85 84 82
0.175781 0.441406 -0.115285 127 126 124
0.179688 0.441406 -0.113964 128 127 125
0.183594 0.441406 -0.112560 69 69 67
0.187500 0.441406 -0.110961 46 46 44
0.191406 0.441406 -0.108950 76 76 74
0.195312 0.441406 -0.106546 111 111 109
0.199219 0.441406 -0.104220 78 78 76
0.203125 0.441406 -0.101787 29 29 27
0.207031 0.441406 -0.099060 13 13 11
0.210938 0.441406 -0.095566 9 9 7
0.214844 0.441406 -0.092393 18 18 16
0.218750 0.441406 -0.088573 24 24 22
0.222656 0.441406 -0.084046 29 29 27
0.226562 0.441406 -0.077858 32 32 30
0.230469 0.441406 -0.070159 90 89 88
-0.152344 0.437500 -0.060192 69 68 70
-0.148438 0.437500 -0.070632 127 126 127
-0.144531 0.437500 -0.077527 50 50 50
-0.140625 0.437500 -0.083354 18 18 18
-0.136719 0.437500 -0.088286 18 18 18
-0.132812 0.437500 -0.092558 96 96 96
-0.128906 0.437500 -0.096524 84 83 81
-0.125000 0.437500 -0.099969 36 35 33
-0.121094 0.437500 -0.102737 15 14 12
-0.117188 0.437500 -0.104873 35 34 32
-0.113281 0.437500 -0.106826 96 95 93
-0.109375 0.437500 -0.108504 32 31 29
-0.105469 0.437500 -0.109343 23 22 20
-0.101562 0.437500 -0.109459 16 15 13
-0.097656 0.437500 -0.109352 43 42 40
-0.093750 0.437500 -0.109407 52 51 49
-0.089844 0.437500 -0.109560 29 28 26
-0.085938 0.437500 -0.109943 4 3 1
-0.082031 0.437500 -0.110401 10 9 7
-0.078125 0.437500 -0.110896 18 17 15
-0.074219 0.437500 -0.112183 24 23 21
-0.070312 0.437500 -0.113842 41 40 38
-0.066406 0.437500 -0.115493 13 12 10
-0.062500 0.437500 -0.117106 48 47 45
-0.058594 0.437500 -0.118447 32 31 29
-0.054688 0.437500 -0.119671 24 23 21
-0.050781 0.437500 -0.120831 18 17 15
-0.046875 0.437500 -0.122009 28 27 25
-0.042969 0.437500 -0.122930 11 10 8
-0.039062 0.437500 -0.123732 26 25 23
-0.035156 0.437500 -0.124494 42 41 39
-0.031250 0.437500 -0.125200 66 65 63
-0.027344 0.437500 -0.126081 118 117 115
-0.023438 0.437500 -0.127050 117 116 114
-0.019531 0.437500 -0.128037 64 63 61
-0.015625 0.437500 -0.129018 31 30 28
-0.011719 0.437500 -0.129631 22 21 19
-0.007812 0.437500 -0.129994 21 20 18
-0.003906 0.437500 -0.130464 28 27 25
0.000000 0.437500 -0.130921 96 95 93
0.003906 0.437500 -0.131284 181 180 178
0.007812 0.437500 -0.131578 101 100 98
0.011719 0.437500 -0.131813 23 22 20
0.015625 0.437500 -0.131952 18 17 15
0.019531 0.437500 -0.132167 3 2 26
0.023438 0.437500 -0.132435 63 62 60
0.027344 0.437500 -0.132706 129 128 126
0.031250 0.437500 -0.132988 114 113 111
0.035156 0.437500 -0.133339 92 91 89
0.039062 0.437500 -0.133746 58 57 55
0.042969 0.437500 -0.134078 29 28 26
0.046875 0.437500 -0.134373 30 29 27
0.050781 0.437500 -0.134684 42 41 39
0.054688 0.437500 -0.134975 41 40 38
0.058594 0.437500 -0.135183 74 73 71
0.062500 0.437500 -0.135378 94 93 91
0.066406 0.437500 -0.135454 100 99 97
0.070312 0.437500 -0.135454 66 65 63
0.074219 0.437500 -0.135436 26 25 23
0.078125 0.437500 -0.135362 24 23 21
0.082031 0.437500 -0.135251 33 32 30
0.085938 0.437500 -0.135080 26 25 23
0.089844 0.437500 -0.134845 76 75 73
0.093750 0.437500 -0.134511 87 86 84
0.097656 0.437500 -0.134161 98 97 95
0.101562 0.437500 -0.133735 92 91 89
0.105469 0.437500 -0.133223 83 82 80
0.109375 0.437500 -0.132632 87 86 84
0.113281 0.437500 -0.132026 79 78 76
0.117188 0.437500 -0.131394 53 52 50
0.121094 0.437500 -0.130758 42 41 39
0.125000 0.437500 -0.130143 40 39 37
0.128906 0.437500 -0.129376 34 33 31
0.132812 0.437500 -0.128486 23 22 20
0.136719 0.437500 -0.127620 18 17 15
0.140625 0.437500 -0.126727 22 21 19
0.144531 0.437500 -0.125712 31 30 28
0.148438 0.437500 -0.124609 39 38 36
0.152344 0.437500 -0.123511 81 80 78
0.156250 0.437500 -0.122462 103 102 100
0.160156 0.437500 -0.121179 95 94 92
0.164062 0.437500 -0.119785 52 51 49
0.167969 0.437500 -0.118238 18 17 15
0.171875 0.437500 -0.116637 17 16 14
0.175781 0.437500 -0.115314 40 39 37
0.179688 0.437500 -0.114094 65 64 62
0.183594 0.437500 -0.112800 110 110 108
0.187500 0.437500 -0.111296 101 101 99
0.191406 0.437500 -0.109405 50 50 48
0.195312 0.437500 -0.107104 11 11 9
0.199219 0.437500 -0.104860 26 26 24
0.203125 0.437500 -0.102474 44 44 42
0.207031 0.437500 -0.099762 54 54 52
0.210938 0.437500 -0.096306 76 76 74
0.214844 0.437500 -0.093125 76 76 74
0.218750 0.437500 -0.089501 105 105 103
0.222656 0.437500 -0.084745 129 129 127
0.226562 0.437500 -0.078934 125 125 123
0.230469 0.437500 -0.071908 140 140 139
-0.152344 0.433594 -0.063912 9 8 7
-0.148438 0.433594 -0.071139 41 40 39
-0.144531 0.433594 -0.077911 86 86 84
-0.140625 0.433594 -0.083818 89 89 87
-0.136719 0.433594 -0.088548 37 37 35
-0.132812 0.433594 -0.092792 12 12 10
-0.128906 0.433594 -0.096663 34 33 31
-0.125000 0.433594 -0.100058 104 103 101
-0.121094 0.433594 -0.102827 46 45 43
-0.117188 0.433594 -0.104963 15 14 12
-0.113281 0.433594 -0.106889 10 9 7
-0.109375 0.433594 -0.108528 82 81 79
-0.105469 0.433594 -0.109372 71 70 68
-0.101562 0.433594 -0.109526 21 20 18
-0.097656 0.433594 -0.109413 11 10 8
-0.093750 0.433594 -0.109425 15 14 12
-0.089844 0.433594 -0.109465 22 21 19
-0.085938 0.433594 -0.109667 34 33 31
-0.082031 0.433594 -0.109945 54 53 51
-0.078125 0.433594 -0.110288 75 74 72
-0.074219 0.433594 -0.111606 88 87 85
-0.070312 0.433594 -0.113400 90 89 87
-0.066406 0.433594 -0.115149 82 81 79
-0.062500 0.433594 -0.116803 100 99 97
-0.058594 0.433594 -0.118171 108 107 105
-0.054688 0.433594 -0.119421 90 89 87
-0.050781 0.433594 -0.120607 97 96 94
-0.046875 0.433594 -0.121824 70 69 67
-0.042969 0.433594 -0.122769 9 8 6
-0.039062 0.433594 -0.123574 23 22 20
-0.035156 0.433594 -0.124339 9 8 6
-0.031250 0.433594 -0.125055 23 22 20
-0.027344 0.433594 -0.125947 18 17 15
-0.023438 0.433594 -0.126927 26 25 23
-0.019531 0.433594 -0.127905 79 78 76
-0.015625 0.433594 -0.128860 144 143 141
-0.011719 0.433594 -0.129461 82 81 79
-0.007812 0.433594 -0.129808 43 42 40
-0.003906 0.433594 -0.130243 21 20 18
0.000000 0.433594 -0.130657 10 9 7
0.003906 0.433594 -0.130987 36 35 33
0.007812 0.433594 -0.131251 78 77 75
0.011719 0.433594 -0.131443 94 93 91
0.015625 0.433594 -0.131523 91 90 88
0.019531 0.433594 -0.131706 62 61 59
0.023438 0.433594 -0.131969 19 18 16
0.027344 0.433594 -0.132221 7 6 4
0.031250 0.433594 -0.132491 32 31 29
0.035156 0.433594 -0.132841 54 53 51
0.039062 0.433594 -0.133250 104 103 101
0.042969 0.433594 -0.133610 118 117 115
0.046875 0.433594 -0.133932 89 88 86
0.050781 0.433594 -0.134271 72 71 69
0.054688 0.433594 -0.134608 45 44 42
0.058594 0.433594 -0.134861 21 20 18
0.062500 0.433594 -0.135097 31 30 28
0.066406 0.433594 -0.135220 39 38 36
0.070312 0.433594 -0.135259 57 56 54
0.074219 0.433594 -0.135280 99 98 96
0.078125 0.433594 -0.135242 131 130 128
0.082031 0.433594 -0.135164 113 112 110
0.085938 0.433594 -0.135012 71 70 68
0.089844 0.433594 -0.134783 26 25 23
0.093750 0.433594 -0.134448 39 38 36
0.097656 0.433594 -0.134073 34 33 31
0.101562 0.433594 -0.133610 28 27 25
0.105469 0.433594 -0.133073 45 44 42
0.109375 0.433594 -0.132466 63 62 60
0.113281 0.433594 -0.131853 66 65 63
0.117188 0.433594 -0.131185 65 64 62
0.121094 0.433594 -0.130520 115 114 112
0.125000 0.433594 -0.129878 120 119 117
0.128906 0.433594 -0.129049 108 107 105
0.132812 0.433594 -0.128083 89 88 86
0.136719 0.433594 -0.127138 76 75 73
0.140625 0.433594 -0.126185 56 55 53
0.144531 0.433594 -0.125150 35 34 32
0.148438 0.433594 -0.124069 26 25 23
0.152344 0.433594 -0.122969 21 20 18
0.156250 0.433594 -0.121888 31 30 28
0.160156 0.433594 -0.120634 84 83 81
0.164062 0.433594 -0.119315 134 133 131
0.167969 0.433594 -0.117907 116 115 113
0.171875 0.433594 -0.116453 60 59 57
0.175781 0.433594 -0.115269 26 25 23
0.179688 0.433594 -0.114202 16 15 13
0.183594 0.433594 -0.113011 37 36 34
0.187500 0.433594 -0.111577 45 44 42
0.191406 0.433594 -0.109786 54 53 51
0.195312 0.433594 -0.107566 74 73 71
0.199219 0.433594 -0.105398 116 115 113
0.203125 0.433594 -0.103058 147 146 144
0.207031 0.433594 -0.100368 133 132 130
0.210938 0.433594 -0.096930 97 96 94
0.214844 0.433594 -0.093754 109 108 106
0.218750 0.433594 -0.090260 100 99 97
0.222656 0.433594 -0.085518 76 75 73
0.226562 0.433594 -0.079995 51 50 48
0.230469 0.433594 -0.072587 74 73 71
0.234375 0.433594 -0.059481 76 75 73
-0.156250 0.429688 -0.052936 97 96 97
-0.152344 0.429688 -0.064942 59 59 57
-0.148438 0.429688 -0.071149 24 23 22
-0.144531 0.429688 -0.078403 17 17 15
-0.140625 0.429688 -0.084004 79 79 78
-0.136719 0.429688 -0.088630 96 96 94
-0.132812 0.429688 -0.092872 26 26 24
-0.128906 0.429688 -0.096749 22 21 19
-0.125000 0.429688 -0.100111 21 20 18
-0.121094 0.429688 -0.102807 114 113 111
-0.117188 0.429688 -0.104939 63 62 60
-0.113281 0.429688 -0.106896 22 21 19
-0.109375 0.429688 -0.108532 9 8 6
-0.105469 0.429688 -0.109356 48 47 45
-0.101562 0.429688 -0.109536 77 76 74
-0.097656 0.429688 -0.109423 26 25 23
-0.093750 0.429688 -0.109400 19 18 16
-0.089844 0.429688 -0.109324 11 10 8
-0.085938 0.429688 -0.109296 13 12 10
-0.082031 0.429688 -0.109331 26 25 23
-0.078125 0.429688 -0.109500 38 37 35
-0.074219 0.429688 -0.110843 35 34 32
-0.070312 0.429688 -0.112790 25 24 22
-0.066406 0.429688 -0.114667 18 17 15
-0.062500 0.429688 -0.116382 24 23 21
-0.058594 0.429688 -0.117786 21 20 18
-0.054688 0.429688 -0.119077 25 24 22
-0.050781 0.429688 -0.120302 64 63 61
-0.046875 0.429688 -0.121555 92 91 89
-0.042969 0.429688 -0.122522 101 100 98
-0.039062 0.429688 -0.123337 135 134 132
-0.035156 0.429688 -0.124123 78 77 75
-0.031250 0.429688 -0.124858 58 57 55
-0.027344 0.429688 -0.125762 24 23 21
-0.023438 0.429688 -0.126748 9 8 6
-0.019531 0.429688 -0.127713 20 19 17
-0.015625 0.429688 -0.128654 46 45 43
-0.011719 0.429688 -0.129235 57 56 54
-0.007812 0.429688 -0.129562 96 95 93
-0.003906 0.429688 -0.129963 158 157 155
0.000000 0.429688 -0.130344 80 79 77
0.003906 0.429688 -0.130653 24 23 21
0.007812 0.429688 -0.130868 15 14 12
0.011719 0.429688 -0.131006 19 18 16
0.015625 0.429688 -0.131052 41 40 38
0.019531 0.429688 -0.131208 73 72 70
0.023438 0.429688 -0.131468 90 89 87
0.027344 0.429688 -0.131712 95 94 92
0.031250 0.429688 -0.131962 61 60 58
0.035156 0.429688 -0.132307 15 14 12
0.039062 0.429688 -0.132719 19 18 16
0.042969 0.429688 -0.133100 28 27 25
0.046875 0.429688 -0.133449 40 39 37
0.050781 0.429688 -0.133815 99 98 96
0.054688 0.429688 -0.134200 141 140 138
0.058594 0.429688 -0.134498 125 124 122
0.062500 0.429688 -0.134770 106 105 103
0.066406 0.429688 -0.134940 73 72 70
0.070312 0.429688 -0.135025 41 40 38
0.074219 0.429688 -0.135090 22 21 19
0.078125 0.429688 -0.135088 25 24 22
0.082031 0.429688 -0.135028 45 44 42
0.085938 0.429688 -0.134875 62 61 59
0.089844 0.429688 -0.134640 106 105 103
0.093750 0.429688 -0.134292 109 108 106
0.097656 0.429688 -0.133887 90 89 87
0.101562 0.429688 -0.133389 66 65 63
0.105469 0.429688 -0.132826 56 55 53
0.109375 0.429688 -0.132204 46 45 43
0.113281 0.429688 -0.131565 32 31 29
0.117188 0.429688 -0.130848 26 25 23
0.121094 0.429688 -0.130133 8 7 5
0.125000 0.429688 -0.129443 28 27 25
0.128906 0.429688 -0.128534 27 26 24
0.132812 0.429688 -0.127484 34 33 31
0.136719 0.429688 -0.126449 91 90 88
0.140625 0.429688 -0.125429 145 144 142
0.144531 0.429688 -0.124367 132 131 129
0.148438 0.429688 -0.123291 91 90 88
0.152344 0.429688 -0.122210 45 44 42
0.156250 0.429688 -0.121139 31 30 28
0.160156 0.429688 -0.119934 26 25 23
0.164062 0.429688 -0.118724 34 33 31
0.167969 0.429688 -0.117488 76 75 73
0.171875 0.429688 -0.116198 141 140 138
0.175781 0.429688 -0.115164 130 129 127
